ply
format ascii 1.0
element vertex 1181
property float x
property float y
property float z
property uchar red
property uchar green
property uchar blue
end_header
0.145269 0.275004 -0.853108 128 128 128
-0.376899 -0.218693 -1.058245 128 128 128
0.517677 0.075031 -0.076393 128 128 128
0.527276 0.084007 -0.990617 128 128 128
-0.477816 -0.147597 -0.168325 128 128 128
0.385274 0.161906 -1.156421 128 128 128
0.134768 -0.200121 0.510824 128 128 128
-0.464619 0.192264 0.970977 128 128 128
-0.148836 0.596634 0.125239 128 128 128
-0.423646 -0.022466 0.442546 128 128 128
-0.175350 0.587134 0.540674 128 128 128
-0.341970 0.204225 -1.058299 128 128 128
0.015905 0.391108 1.016777 128 128 128
0.470133 -0.199509 -0.501889 128 128 128
-0.497583 0.088770 1.016702 128 128 128
0.479898 0.104969 -0.050291 128 128 128
-0.405366 0.042992 -0.250390 128 128 128
0.326446 0.358468 0.992154 128 128 128
0.483447 -0.039996 -0.966678 128 128 128
-0.314825 -0.052792 0.846503 128 128 128
-0.362913 0.057587 -0.930417 128 128 128
0.462424 0.286825 -0.551576 128 128 128
-0.487537 -0.015198 0.111638 128 128 128
-0.415745 0.365131 -0.058243 128 128 128
-0.150186 0.600001 0.234678 128 128 128
-0.412940 -0.058895 0.888837 128 128 128
-0.429660 -0.147642 -1.263868 128 128 128
-0.423723 0.364492 -0.210784 128 128 128
0.018798 0.281306 -0.820047 128 128 128
-0.255570 -0.215594 -1.333974 128 128 128
-0.440136 -0.099829 -0.739706 128 128 128
-0.478534 0.050076 0.747980 128 128 128
-0.380024 -0.176831 0.157657 128 128 128
0.046853 -0.211555 -0.980936 128 128 128
-0.092276 0.478150 0.947042 128 128 128
-0.456168 -0.210053 0.566312 128 128 128
0.377323 -0.169857 -0.992564 128 128 128
0.113427 0.581613 0.576016 128 128 128
0.395730 0.010485 -1.255216 128 128 128
-0.387728 0.454894 0.134907 128 128 128
0.385101 0.100446 -1.205206 128 128 128
0.244093 0.264943 1.054466 128 128 128
0.378820 0.033298 -1.292330 128 128 128
0.427244 -0.195288 1.073371 128 128 128
0.135237 0.579674 0.654077 128 128 128
0.462145 0.141976 -1.066348 128 128 128
-0.390101 0.342098 0.878942 128 128 128
0.449944 0.009283 -0.631766 128 128 128
0.415422 0.436049 -0.134352 128 128 128
0.493911 -0.187895 0.222191 128 128 128
0.356266 0.390647 -0.556980 128 128 128
0.190233 -0.196533 0.160524 128 128 128
0.425102 0.380568 0.145709 128 128 128
0.511622 0.284747 -0.539918 128 128 128
0.297678 0.047145 -1.233225 128 128 128
0.536206 -0.029640 -1.093262 128 128 128
0.442520 0.289511 0.488195 128 128 128
-0.512460 0.018607 -0.721007 128 128 128
0.236595 -0.194400 -0.186292 128 128 128
0.371302 -0.192315 0.003337 128 128 128
0.543119 -0.025090 0.714932 128 128 128
-0.061282 -0.194550 0.627914 128 128 128
-0.218646 0.556354 0.857041 128 128 128
-0.131138 0.586037 0.698525 128 128 128
-0.483267 0.083662 -0.646972 128 128 128
-0.085676 0.585655 0.627965 128 128 128
0.419396 -0.208230 0.906651 128 128 128
0.447689 0.283245 -0.186004 128 128 128
-0.481558 -0.041482 1.065628 128 128 128
0.348332 0.306905 -0.715068 128 128 128
-0.339518 0.539239 0.443987 128 128 128
-0.293363 0.548560 -0.249710 128 128 128
0.445216 0.107418 -0.812614 128 128 128
-0.341665 -0.159658 1.060427 128 128 128
0.526210 -0.273839 -0.989759 128 128 128
-0.402592 0.405451 0.579930 128 128 128
-0.122367 0.149737 -1.260896 128 128 128
-0.460219 -0.099632 -0.382489 128 128 128
-0.274574 -0.201855 -0.341974 128 128 128
0.134176 0.490644 -0.442226 128 128 128
0.493060 0.228012 0.248194 128 128 128
-0.249520 0.473303 -0.416292 128 128 128
-0.485286 -0.050083 0.179812 128 128 128
0.087887 -0.197965 0.328465 128 128 128
0.460992 -0.042635 -0.953340 128 128 128
-0.393778 -0.033446 -1.164999 128 128 128
-0.247870 0.459304 -0.449220 128 128 128
-0.204591 0.569970 -0.176668 128 128 128
0.182133 -0.199078 0.282107 128 128 128
-0.062878 0.448447 0.974995 128 128 128
-0.361825 0.242193 -0.836474 128 128 128
0.545043 -0.126265 0.610203 128 128 128
-0.220835 0.120537 0.959087 128 128 128
-0.408568 -0.032067 -0.188231 128 128 128
0.449164 -0.241629 0.778983 128 128 128
-0.148407 0.083520 -1.333787 128 128 128
-0.212191 0.584761 0.593162 128 128 128
0.067764 -0.164860 0.996571 128 128 128
0.155388 -0.043717 -1.343999 128 128 128
-0.426303 0.356793 -0.204549 128 128 128
-0.369531 -0.036715 -1.338442 128 128 128
-0.422666 0.064031 -0.473006 128 128 128
0.299952 0.043758 -1.077734 128 128 128
0.063988 0.260909 1.097339 128 128 128
-0.125375 0.585281 -0.035922 128 128 128
-0.101615 0.107324 -1.373122 128 128 128
-0.501083 -0.173288 0.657490 128 128 128
-0.272286 0.239909 -1.003515 128 128 128
0.245741 -0.176967 1.144363 128 128 128
-0.248542 0.498896 -0.385031 128 128 128
0.358570 -0.000803 0.842371 128 128 128
-0.325021 0.573144 0.001346 128 128 128
0.514072 0.046504 -0.014505 128 128 128
-0.298266 -0.038901 1.182689 128 128 128
0.233648 -0.213668 -0.975147 128 128 128
-0.459577 0.164084 -0.294639 128 128 128
0.106629 -0.148919 0.910337 128 128 128
-0.425419 -0.013954 -0.019251 128 128 128
0.131535 0.484314 0.936520 128 128 128
0.437713 -0.211840 -1.168328 128 128 128
-0.398732 -0.149915 0.233438 128 128 128
-0.479490 -0.039357 -0.938613 128 128 128
0.496791 -0.040988 -0.973402 128 128 128
0.044229 0.133900 -1.333908 128 128 128
0.510312 -0.104922 0.287926 128 128 128
0.140464 -0.214760 -1.195088 128 128 128
0.414828 0.029417 -0.650290 128 128 128
0.424018 0.046416 -1.120326 128 128 128
-0.442099 0.264858 -0.461905 128 128 128
0.007335 0.595259 0.067732 128 128 128
-0.444967 -0.189183 -1.084565 128 128 128
0.326133 -0.084048 1.138333 128 128 128
-0.419200 0.362776 -0.383209 128 128 128
0.509975 -0.094765 0.242621 128 128 128
0.523584 0.060168 -0.558195 128 128 128
-0.153958 0.593635 0.318050 128 128 128
-0.330088 0.013245 -0.719283 128 128 128
-0.329073 -0.032270 0.846923 128 128 128
-0.502545 -0.215889 -1.143065 128 128 128
-0.346680 -0.059493 -0.745789 128 128 128
0.390879 0.481438 -0.361043 128 128 128
-0.072570 -0.041061 1.177613 128 128 128
0.391075 -0.005365 0.913982 128 128 128
-0.001240 0.017007 -1.417392 128 128 128
0.180156 -0.169027 1.002602 128 128 128
0.518172 -0.081411 -0.010469 128 128 128
-0.300016 0.584752 0.328606 128 128 128
0.000557 -0.196165 -1.348961 128 128 128
-0.419678 -0.004359 0.569735 128 128 128
-0.442099 0.307963 -0.337153 128 128 128
0.364799 -0.192129 0.238296 128 128 128
0.376316 -0.330405 0.829898 128 128 128
-0.332820 -0.048498 0.917396 128 128 128
-0.316445 -0.219197 -1.120403 128 128 128
-0.456632 -0.285039 0.761122 128 128 128
0.505082 -0.111913 -0.030268 128 128 128
0.444754 0.348630 -0.124321 128 128 128
0.228853 0.258220 -0.909938 128 128 128
-0.086093 0.262124 -0.821431 128 128 128
0.182829 -0.212383 -0.895198 128 128 128
0.437651 0.238527 1.006439 128 128 128
0.524609 0.063790 -0.080767 128 128 128
0.309942 -0.037904 -0.922844 128 128 128
-0.384724 -0.141693 -0.807491 128 128 128
0.521370 -0.070076 0.119906 128 128 128
0.509402 -0.219117 0.992166 128 128 128
0.464381 -0.228607 -0.719059 128 128 128
-0.441842 0.260556 -0.420584 128 128 128
0.437249 -0.081255 -0.421739 128 128 128
-0.233549 0.571380 -0.176832 128 128 128
-0.290280 -0.196532 0.452903 128 128 128
0.484243 -0.205743 -0.507087 128 128 128
-0.427669 0.105326 -0.354754 128 128 128
0.515896 -0.185938 -0.697613 128 128 128
-0.329317 -0.127259 1.148776 128 128 128
0.329116 0.540258 0.699441 128 128 128
-0.461352 0.036803 0.891620 128 128 128
-0.435009 -0.134519 0.820585 128 128 128
-0.106261 0.590537 0.069312 128 128 128
-0.412379 -0.189430 0.194691 128 128 128
-0.373703 0.115144 -1.179257 128 128 128
-0.461774 -0.210908 -0.284399 128 128 128
0.429903 0.003727 0.550738 128 128 128
0.534872 -0.179541 0.529949 128 128 128
-0.339904 -0.055624 0.587922 128 128 128
-0.464390 -0.181521 0.016373 128 128 128
-0.065334 -0.163838 1.176112 128 128 128
-0.334886 -0.181920 0.769579 128 128 128
-0.346125 0.019930 -0.994809 128 128 128
0.087315 0.269234 -0.866469 128 128 128
-0.031335 0.443580 -0.518832 128 128 128
0.011086 -0.194545 0.132334 128 128 128
0.385806 -0.156353 0.987447 128 128 128
-0.394626 0.085562 -0.924134 128 128 128
0.088981 -0.197881 0.524468 128 128 128
0.139811 0.400855 -0.573265 128 128 128
-0.453440 0.303024 0.082310 128 128 128
0.304272 -0.074708 -0.945847 128 128 128
-0.463363 0.102245 0.185915 128 128 128
-0.173630 -0.198776 -0.237343 128 128 128
0.200390 -0.195141 0.604954 128 128 128
0.301599 -0.038365 -1.335139 128 128 128
-0.493604 -0.002157 0.139056 128 128 128
0.303379 -0.199002 0.380768 128 128 128
-0.481685 0.009130 0.234379 128 128 128
-0.482276 0.048433 0.402414 128 128 128
0.535430 -0.205223 0.492221 128 128 128
-0.121169 -0.211578 -1.212806 128 128 128
0.411600 -0.193986 1.034436 128 128 128
0.043590 -0.194318 -0.146693 128 128 128
-0.020075 0.581661 0.701417 128 128 128
0.512431 -0.136489 -0.578047 128 128 128
-0.161379 -0.202275 0.551212 128 128 128
0.515097 -0.003156 -0.979280 128 128 128
0.347670 -0.065351 1.156695 128 128 128
-0.448574 -0.282650 -0.765978 128 128 128
-0.056794 -0.206313 -0.624964 128 128 128
0.462439 -0.221292 -0.731474 128 128 128
0.482489 -0.054965 0.905962 128 128 128
0.382506 -0.174232 0.978206 128 128 128
0.514136 0.165613 -0.168405 128 128 128
-0.483509 0.001244 -0.664022 128 128 128
-0.443390 -0.201857 -0.036510 128 128 128
-0.420932 -0.184799 -0.046695 128 128 128
-0.490863 0.073825 0.583075 128 128 128
-0.265148 0.589824 0.342954 128 128 128
0.110700 0.586832 0.620450 128 128 128
0.407919 0.004798 -0.645238 128 128 128
0.447968 -0.115601 -0.463837 128 128 128
-0.007580 -0.083351 -1.376495 128 128 128
0.426362 0.018439 -0.242337 128 128 128
0.422637 0.390561 -0.383502 128 128 128
0.350304 0.033022 1.120976 128 128 128
0.510704 0.139201 -0.825535 128 128 128
-0.098714 0.489788 -0.426887 128 128 128
0.493031 0.128749 -0.915147 128 128 128
-0.218910 0.521789 -0.357188 128 128 128
-0.048472 0.058790 1.143335 128 128 128
0.478539 -0.102926 1.128772 128 128 128
0.503065 0.214213 0.539551 128 128 128
0.254158 -0.194056 0.146806 128 128 128
0.455061 0.172389 0.752462 128 128 128
0.282896 0.577685 0.401179 128 128 128
0.442067 0.061763 0.672749 128 128 128
-0.318418 0.580947 0.616219 128 128 128
-0.249972 -0.200651 -0.318992 128 128 128
0.417386 -0.161389 -1.121004 128 128 128
-0.000558 0.218506 1.130291 128 128 128
0.453366 0.275670 0.490129 128 128 128
-0.393910 -0.118540 -0.689757 128 128 128
0.156045 0.302364 -0.735307 128 128 128
0.380672 0.408038 0.870033 128 128 128
0.360476 -0.075656 -1.011594 128 128 128
0.482977 -0.238468 0.609980 128 128 128
-0.407220 0.390188 0.449316 128 128 128
0.195453 0.562701 -0.239435 128 128 128
0.404812 -0.024853 -1.038859 128 128 128
0.074242 -0.212698 -1.067896 128 128 128
0.492457 0.101627 1.079239 128 128 128
-0.440183 -0.057858 0.766644 128 128 128
0.402314 0.355099 0.954905 128 128 128
0.435403 -0.197964 0.791384 128 128 128
0.113224 0.028073 1.134439 128 128 128
0.120940 0.593202 0.326177 128 128 128
0.379655 0.422270 -0.445309 128 128 128
-0.478479 -0.005882 -0.187768 128 128 128
0.459640 0.274716 -0.231210 128 128 128
-0.148525 -0.206346 -0.572921 128 128 128
-0.437041 0.049777 -0.388033 128 128 128
-0.437916 0.268335 -0.588338 128 128 128
-0.361551 -0.287411 -0.816071 128 128 128
-0.455018 -0.196873 0.198719 128 128 128
-0.354490 -0.181705 -0.303875 128 128 128
-0.448220 -0.187359 0.651057 128 128 128
-0.390552 0.065706 -0.886059 128 128 128
-0.119095 0.517280 -0.359046 128 128 128
0.505938 -0.149531 -1.149565 128 128 128
0.512958 0.002876 -0.182952 128 128 128
0.484587 0.099223 0.682110 128 128 128
0.130563 0.470908 -0.474789 128 128 128
-0.340251 -0.012094 0.662215 128 128 128
-0.502518 -0.096753 0.945249 128 128 128
-0.158803 -0.194917 0.316709 128 128 128
0.433085 0.012073 -1.152860 128 128 128
-0.302039 0.584191 0.271878 128 128 128
0.522638 0.069464 0.650070 128 128 128
0.052193 0.590855 0.058553 128 128 128
-0.243279 0.587677 -0.038399 128 128 128
0.292734 -0.097971 -0.679881 128 128 128
-0.096498 -0.205912 -0.802069 128 128 128
0.389910 0.113557 0.698622 128 128 128
0.307401 0.032082 1.177248 128 128 128
0.272040 -0.199603 0.443174 128 128 128
0.140769 -0.198007 0.266862 128 128 128
0.507372 -0.145785 0.391658 128 128 128
0.065329 -0.193676 -0.078299 128 128 128
0.420890 0.078677 -1.182595 128 128 128
-0.051300 0.589581 -0.011392 128 128 128
-0.361964 0.516744 0.425463 128 128 128
-0.357465 -0.192552 0.225396 128 128 128
0.497238 -0.205389 0.205414 128 128 128
0.480804 0.311108 -0.386770 128 128 128
0.416654 0.109768 -0.232096 128 128 128
-0.502569 -0.049070 0.700025 128 128 128
-0.439025 0.222495 -0.557114 128 128 128
0.319189 -0.180492 0.673587 128 128 128
-0.367589 -0.187241 0.497320 128 128 128
-0.407520 -0.176137 -1.241050 128 128 128
0.354717 -0.156638 1.038115 128 128 128
0.367268 -0.305582 0.752224 128 128 128
-0.027578 0.108449 -1.356800 128 128 128
0.336892 0.424817 -0.488797 128 128 128
0.066397 -0.209495 -0.820541 128 128 128
0.477230 0.287180 -0.007108 128 128 128
-0.466928 0.036307 0.254844 128 128 128
-0.018680 0.595303 0.333123 128 128 128
0.522159 0.097063 -0.543324 128 128 128
0.348239 -0.203757 -0.471002 128 128 128
0.368848 -0.307237 0.710105 128 128 128
0.232191 -0.190733 1.121305 128 128 128
-0.051787 -0.211157 -1.112481 128 128 128
0.295252 -0.143855 -0.884198 128 128 128
0.493155 -0.059961 0.085575 128 128 128
-0.447286 -0.204898 0.349364 128 128 128
-0.421764 -0.183793 -0.235107 128 128 128
-0.108086 0.598491 0.155828 128 128 128
0.353616 0.553161 0.229066 128 128 128
-0.343976 -0.197389 0.145541 128 128 128
0.501686 -0.081210 0.105171 128 128 128
-0.468436 -0.098180 0.304151 128 128 128
0.077257 -0.212745 -1.115051 128 128 128
0.326113 -0.191970 -0.191058 128 128 128
-0.273988 -0.006845 -0.785354 128 128 128
0.046239 0.350998 -0.653017 128 128 128
0.280787 0.575808 0.434520 128 128 128
0.447862 -0.107773 0.688959 128 128 128
0.424113 -0.131453 1.131777 128 128 128
0.415486 0.007463 -1.193131 128 128 128
-0.389629 -0.001877 -1.303690 128 128 128
-0.471135 -0.110862 0.013305 128 128 128
0.492008 0.221035 0.213970 128 128 128
-0.068415 0.207886 -1.127562 128 128 128
-0.031183 0.595380 0.406994 128 128 128
-0.478079 -0.050013 -0.697374 128 128 128
-0.136137 0.560344 -0.294363 128 128 128
0.513196 0.087460 0.322543 128 128 128
0.269084 -0.159819 0.910430 128 128 128
0.413969 0.032544 0.915770 128 128 128
0.481229 -0.187801 0.188013 128 128 128
0.283941 0.474233 0.899255 128 128 128
0.236946 -0.215119 -0.924069 128 128 128
0.511674 -0.155229 -0.027246 128 128 128
-0.478936 -0.043946 1.072679 128 128 128
0.434082 -0.123341 -1.302249 128 128 128
-0.429576 0.074284 0.770916 128 128 128
-0.285462 -0.144520 -1.326817 128 128 128
0.500837 -0.007195 -0.519994 128 128 128
-0.144259 0.554274 0.868059 128 128 128
0.233764 -0.207392 -0.506746 128 128 128
0.307671 0.567132 -0.088445 128 128 128
0.523817 0.075061 -1.045059 128 128 128
0.428888 -0.043565 -0.956534 128 128 128
-0.254550 0.011084 -0.865815 128 128 128
-0.428262 -0.039562 0.481055 128 128 128
-0.313024 -0.076293 0.649035 128 128 128
0.384339 0.478142 -0.213945 128 128 128
-0.260342 -0.207958 -0.989068 128 128 128
0.037256 -0.132757 1.166777 128 128 128
-0.418195 -0.037987 0.594084 128 128 128
-0.464716 -0.140757 -0.575406 128 128 128
-0.025920 -0.201648 -0.410932 128 128 128
-0.039269 -0.172700 1.033686 128 128 128
0.499137 -0.192686 -1.067664 128 128 128
0.446366 -0.022783 1.091253 128 128 128
0.004850 -0.200989 -0.266756 128 128 128
0.276073 0.490063 -0.411243 128 128 128
-0.354934 0.528635 0.662306 128 128 128
0.449069 -0.118518 -0.648540 128 128 128
-0.462579 -0.127510 -0.465689 128 128 128
0.442394 -0.198187 0.387621 128 128 128
0.509346 -0.129714 0.436478 128 128 128
0.160458 -0.194464 -0.098168 128 128 128
0.514466 -0.253941 -0.767144 128 128 128
-0.151206 -0.212625 -1.012713 128 128 128
-0.404832 0.256097 -0.777727 128 128 128
-0.233003 -0.193304 0.473076 128 128 128
-0.358929 -0.245135 0.872708 128 128 128
-0.447444 0.281366 -0.050656 128 128 128
-0.464999 0.047759 -0.574116 128 128 128
0.350411 0.078390 -1.190016 128 128 128
-0.452102 0.080592 -0.945016 128 128 128
0.010763 -0.025703 -1.387417 128 128 128
-0.292524 0.055400 -0.809905 128 128 128
0.439111 0.140994 0.715375 128 128 128
-0.479832 0.065689 -0.665507 128 128 128
0.445196 -0.113959 -0.656280 128 128 128
0.340118 -0.193710 0.560832 128 128 128
0.269900 -0.214835 -0.915209 128 128 128
-0.389274 0.431536 0.366642 128 128 128
-0.479380 -0.121261 0.943575 128 128 128
-0.374348 -0.203364 -0.263548 128 128 128
-0.055446 0.135452 -1.254400 128 128 128
-0.087995 -0.211563 -0.996984 128 128 128
-0.403911 0.276248 1.075157 128 128 128
0.099425 0.284954 -0.826327 128 128 128
0.380739 0.512047 -0.074418 128 128 128
-0.211862 -0.212769 -1.186899 128 128 128
-0.411165 0.392678 -0.156563 128 128 128
0.175350 -0.196006 0.630145 128 128 128
0.520780 -0.075368 -0.522004 128 128 128
0.099247 0.255571 -0.896867 128 128 128
0.225073 0.203757 -1.098204 128 128 128
0.348989 -0.031990 0.822662 128 128 128
-0.294364 0.565121 -0.070431 128 128 128
-0.391326 -0.039851 0.936979 128 128 128
-0.316952 -0.202002 -0.525064 128 128 128
-0.480132 0.150071 -0.846011 128 128 128
-0.381907 0.031219 0.638302 128 128 128
-0.278985 0.072579 -0.833253 128 128 128
0.198710 -0.178873 0.867409 128 128 128
0.312907 -0.207173 -0.512758 128 128 128
-0.198176 0.301001 -0.690217 128 128 128
-0.335233 0.531129 -0.059475 128 128 128
-0.418554 -0.046388 0.760755 128 128 128
-0.492533 0.180927 0.094679 128 128 128
-0.406055 -0.136457 -1.154330 128 128 128
-0.135656 -0.032133 1.177268 128 128 128
0.432072 0.166233 0.634792 128 128 128
-0.134501 -0.174564 -1.316016 128 128 128
-0.039199 0.214587 -0.998216 128 128 128
0.095106 0.332228 1.050013 128 128 128
-0.446603 0.144577 -0.308825 128 128 128
0.286571 -0.182927 -0.997411 128 128 128
-0.449610 0.271999 0.800829 128 128 128
-0.453344 0.065812 -1.205409 128 128 128
0.424964 -0.143960 -0.612388 128 128 128
-0.140557 0.147299 -1.251848 128 128 128
-0.466188 0.056093 -0.318520 128 128 128
0.493798 -0.246139 -0.739404 128 128 128
0.064344 0.601110 0.176948 128 128 128
0.380967 -0.133598 1.109351 128 128 128
0.305539 0.089650 -0.839245 128 128 128
-0.496484 -0.035314 -1.014903 128 128 128
0.433071 -0.023518 -0.845652 128 128 128
-0.481890 0.003835 -1.183966 128 128 128
0.265125 -0.031705 -1.372255 128 128 128
-0.507831 0.021316 1.010835 128 128 128
-0.477857 0.148031 0.681773 128 128 128
-0.150245 0.187144 1.126586 128 128 128
-0.224953 0.364469 1.046210 128 128 128
-0.472974 -0.104360 -0.280765 128 128 128
-0.501797 -0.090312 -1.156722 128 128 128
0.088265 0.591682 0.314024 128 128 128
-0.341264 -0.203690 -0.495129 128 128 128
0.124471 -0.213359 -1.118545 128 128 128
-0.445614 -0.204548 0.205977 128 128 128
0.152834 0.576176 0.694967 128 128 128
0.510374 -0.031107 -0.679367 128 128 128
-0.411675 0.245177 1.101015 128 128 128
0.410629 -0.140134 -1.104845 128 128 128
0.107448 -0.209199 -1.261240 128 128 128
-0.491555 0.154613 0.092832 128 128 128
0.290487 0.543766 -0.281384 128 128 128
-0.079010 -0.162486 0.916258 128 128 128
0.475621 0.245388 -0.254201 128 128 128
0.257333 -0.191480 0.057755 128 128 128
-0.400129 0.400590 0.794645 128 128 128
-0.153205 0.592620 0.140836 128 128 128
-0.005694 -0.120466 -1.402167 128 128 128
0.115885 0.596173 0.399056 128 128 128
-0.337385 -0.097209 1.122629 128 128 128
0.376141 -0.104882 1.102974 128 128 128
0.499279 0.236402 0.290504 128 128 128
0.400069 0.002942 -0.799517 128 128 128
0.370167 -0.131798 -1.099465 128 128 128
-0.385425 0.107612 -1.247956 128 128 128
0.446505 0.306278 -0.355027 128 128 128
-0.450173 -0.040673 0.032964 128 128 128
-0.107791 0.585211 0.665046 128 128 128
0.437199 -0.018794 1.112193 128 128 128
0.299462 0.046668 1.134134 128 128 128
0.396716 -0.198294 0.846439 128 128 128
-0.454741 -0.171063 -0.642460 128 128 128
0.290781 -0.020749 -0.837890 128 128 128
0.188350 -0.034835 1.137985 128 128 128
0.022094 -0.208192 -0.492266 128 128 128
-0.093559 0.567885 -0.230676 128 128 128
-0.462488 -0.102627 -0.945469 128 128 128
0.333905 -0.124996 1.110743 128 128 128
-0.053277 0.513049 -0.378457 128 128 128
-0.168198 -0.151794 1.148287 128 128 128
0.435382 0.360457 0.161932 128 128 128
-0.160660 0.520318 -0.366650 128 128 128
-0.492601 -0.065316 -0.696296 128 128 128
-0.028498 0.530596 0.898107 128 128 128
0.428960 -0.042013 -0.947089 128 128 128
0.420082 0.102736 -0.922045 128 128 128
0.510005 0.107287 -0.598001 128 128 128
0.407911 -0.194412 0.048173 128 128 128
-0.489558 -0.192713 -1.175210 128 128 128
0.476901 -0.072688 -0.177690 128 128 128
0.481416 -0.034771 0.051281 128 128 128
-0.328201 -0.008516 -0.974585 128 128 128
0.353123 -0.095204 -1.113728 128 128 128
0.029690 0.257102 -0.873688 128 128 128
0.008613 0.253167 -0.921423 128 128 128
0.480860 -0.013017 -0.711921 128 128 128
0.013502 0.581580 -0.159120 128 128 128
0.516806 -0.113845 -0.216770 128 128 128
0.084068 -0.209517 -0.620068 128 128 128
-0.422752 -0.157602 -0.071191 128 128 128
-0.478089 -0.101467 -0.190606 128 128 128
0.449611 0.264824 0.364685 128 128 128
-0.414028 0.117181 0.027235 128 128 128
-0.440122 -0.175213 0.131990 128 128 128
-0.429440 0.331665 0.645018 128 128 128
0.389410 -0.099246 -1.063305 128 128 128
-0.180513 0.582650 -0.081585 128 128 128
-0.100381 -0.199580 -0.335805 128 128 128
-0.461254 -0.203376 0.909301 128 128 128
-0.071545 0.538153 0.893940 128 128 128
-0.408374 -0.228312 -1.178252 128 128 128
0.368230 0.123856 1.096699 128 128 128
-0.405028 0.200930 -0.994681 128 128 128
0.414816 -0.084148 -0.468069 128 128 128
-0.465896 -0.018138 0.340614 128 128 128
-0.235749 0.584630 0.384527 128 128 128
-0.444722 0.296881 -0.264305 128 128 128
-0.411714 -0.200610 -0.214924 128 128 128
0.513694 0.148438 0.597982 128 128 128
0.150435 -0.211332 -0.867309 128 128 128
0.514322 -0.105932 0.307252 128 128 128
0.456798 0.253324 0.470980 128 128 128
0.383163 -0.156957 -0.621578 128 128 128
0.357428 0.167262 -1.167110 128 128 128
0.483093 -0.318258 -0.955309 128 128 128
-0.346502 0.536330 0.445518 128 128 128
-0.503357 0.079870 -0.973621 128 128 128
-0.292958 0.435465 0.972994 128 128 128
-0.459886 -0.186738 0.150733 128 128 128
0.142020 -0.209106 -0.559015 128 128 128
0.405048 0.472719 -0.039897 128 128 128
0.440363 0.246725 0.069893 128 128 128
0.211300 -0.190153 -0.215666 128 128 128
0.388444 0.048137 0.595496 128 128 128
-0.464791 0.130687 -0.258111 128 128 128
0.135287 -0.214740 -1.311111 128 128 128
0.444097 0.282452 0.379912 128 128 128
-0.431097 -0.010039 -1.279104 128 128 128
-0.465440 0.254053 0.236225 128 128 128
-0.421447 0.315232 -0.619507 128 128 128
-0.069784 0.086926 1.134512 128 128 128
-0.251783 -0.205571 0.623964 128 128 128
0.479380 0.125097 -0.396143 128 128 128
0.264385 0.544978 0.816215 128 128 128
-0.259429 -0.121748 -0.893097 128 128 128
0.385746 0.486283 -0.185346 128 128 128
-0.440396 -0.116970 -1.250832 128 128 128
0.417725 -0.214128 -0.558249 128 128 128
-0.448730 -0.147246 -0.621776 128 128 128
-0.145933 -0.194618 0.327801 128 128 128
-0.126045 0.252766 -0.991456 128 128 128
-0.335607 0.574053 0.411059 128 128 128
-0.448941 0.213853 -0.520157 128 128 128
0.466354 -0.052174 -0.839558 128 128 128
-0.518092 0.090022 -0.740943 128 128 128
0.359474 -0.194232 0.107973 128 128 128
0.323055 0.584071 0.178323 128 128 128
0.082933 -0.120132 -1.333501 128 128 128
0.425410 -0.195695 0.672314 128 128 128
0.504759 -0.154178 -0.588073 128 128 128
-0.465510 -0.060352 -0.552475 128 128 128
0.030746 0.149418 -1.202851 128 128 128
0.499232 -0.087271 -0.861789 128 128 128
0.338720 -0.208851 -0.725140 128 128 128
-0.411043 0.386303 0.224158 128 128 128
0.386070 0.427489 0.632499 128 128 128
-0.248200 0.012015 1.170924 128 128 128
0.310222 -0.166669 0.827365 128 128 128
-0.371635 0.445286 0.851413 128 128 128
0.036208 0.487672 -0.446229 128 128 128
-0.468697 -0.200578 0.604881 128 128 128
-0.437606 -0.080907 0.602491 128 128 128
0.354598 0.511381 -0.286840 128 128 128
-0.479719 -0.010461 0.401469 128 128 128
-0.447411 -0.270318 0.769701 128 128 128
-0.470915 0.206015 -0.320891 128 128 128
0.071488 -0.200561 -1.319897 128 128 128
0.314020 -0.172748 0.831764 128 128 128
0.343244 0.015557 1.142635 128 128 128
-0.386069 0.457119 -0.295875 128 128 128
-0.436215 0.330958 -0.132107 128 128 128
0.361219 -0.096479 -0.724634 128 128 128
0.208873 -0.209570 -0.499418 128 128 128
0.310543 -0.038620 -0.756177 128 128 128
-0.289582 0.310849 -0.660676 128 128 128
-0.335608 -0.143231 0.893492 128 128 128
-0.328350 0.579562 0.390851 128 128 128
0.472942 0.287481 -0.213692 128 128 128
-0.487409 0.011418 0.817757 128 128 128
-0.202150 -0.192855 -0.882395 128 128 128
0.034901 0.057232 -1.388548 128 128 128
-0.507166 0.092198 -1.025842 128 128 128
0.384615 0.263785 -0.671008 128 128 128
0.364027 0.507464 0.407667 128 128 128
0.468702 0.071643 -0.792034 128 128 128
0.317841 -0.185418 0.601339 128 128 128
0.369433 0.534374 0.140572 128 128 128
-0.303544 -0.052317 0.930600 128 128 128
0.456608 0.285797 0.737691 128 128 128
0.506651 -0.107451 -0.719414 128 128 128
0.505632 0.064557 0.645118 128 128 128
-0.135627 -0.198327 -0.176413 128 128 128
-0.324450 0.131903 -1.259802 128 128 128
0.369647 -0.015987 0.819820 128 128 128
-0.023475 0.593620 0.459366 128 128 128
0.445818 0.317009 0.182920 128 128 128
-0.081658 -0.197672 -0.231678 128 128 128
-0.428416 -0.071657 0.877856 128 128 128
0.028268 0.431594 0.982831 128 128 128
-0.381528 0.445918 0.693653 128 128 128
0.464253 -0.200803 0.170315 128 128 128
-0.416002 -0.203221 -1.085925 128 128 128
0.475827 -0.017772 -0.623062 128 128 128
0.390792 0.485873 -0.092376 128 128 128
-0.493901 0.084385 0.063978 128 128 128
0.536029 -0.191229 0.631589 128 128 128
-0.145108 -0.001630 1.189268 128 128 128
-0.465191 0.236493 0.144664 128 128 128
-0.172199 -0.201036 -0.377722 128 128 128
-0.384191 0.032003 0.599891 128 128 128
-0.456602 0.254831 0.154853 128 128 128
0.538250 0.084092 0.583647 128 128 128
-0.354846 0.510032 0.063091 128 128 128
0.483179 -0.132116 -1.071652 128 128 128
0.571757 0.313797 -0.420773 128 128 128
-0.413591 0.396512 -0.225734 128 128 128
0.518104 0.084114 -0.553363 128 128 128
-0.066728 0.337453 -0.655711 128 128 128
0.512158 0.136359 -0.516538 128 128 128
-0.468592 0.122318 -1.097990 128 128 128
0.286119 0.200377 1.085743 128 128 128
0.409386 0.438662 0.091055 128 128 128
0.389210 0.003080 -0.917121 128 128 128
-0.180468 -0.009877 1.193557 128 128 128
0.377880 -0.010095 -1.317164 128 128 128
-0.386347 0.099757 0.720702 128 128 128
-0.101410 -0.134559 -1.333237 128 128 128
-0.192545 0.559558 -0.286472 128 128 128
0.367336 0.442527 -0.435457 128 128 128
0.521953 0.062953 0.671627 128 128 128
-0.125272 -0.202760 -0.393609 128 128 128
0.511193 0.014347 0.444159 128 128 128
0.355200 0.541432 0.093158 128 128 128
-0.482595 0.094097 0.368497 128 128 128
-0.304326 -0.057984 1.196696 128 128 128
-0.434646 0.144508 -0.344735 128 128 128
-0.423536 0.348590 -0.343174 128 128 128
-0.116835 0.142004 -1.253706 128 128 128
0.393060 0.019702 -1.272061 128 128 128
0.075786 0.144825 -1.298560 128 128 128
0.513257 -0.051395 -0.940818 128 128 128
0.511814 0.110573 0.563234 128 128 128
0.376764 0.329843 -0.638400 128 128 128
-0.439354 0.338044 -0.138865 128 128 128
0.362783 0.049562 -0.905556 128 128 128
-0.164471 0.147090 -1.272741 128 128 128
-0.003661 0.296327 1.115013 128 128 128
0.443960 0.285197 -0.399763 128 128 128
-0.348544 -0.189263 0.218227 128 128 128
-0.412580 -0.056450 -0.645980 128 128 128
-0.359024 -0.194838 0.762302 128 128 128
0.324250 -0.143125 0.988471 128 128 128
0.539023 -0.236210 -0.771558 128 128 128
-0.443709 -0.202506 -0.202109 128 128 128
0.522733 -0.221468 -0.862574 128 128 128
0.146418 0.274898 -0.798107 128 128 128
0.287184 -0.164741 -0.685641 128 128 128
0.195453 0.345884 -0.633617 128 128 128
-0.347481 -0.188573 -0.678273 128 128 128
-0.478122 -0.138655 -0.051305 128 128 128
-0.477791 0.002443 -1.037921 128 128 128
-0.500682 0.067690 -0.145118 128 128 128
-0.076654 0.394775 1.013533 128 128 128
-0.389190 -0.220777 0.918218 128 128 128
-0.255869 0.578843 0.662959 128 128 128
0.121125 0.066097 -1.377009 128 128 128
0.023883 0.405559 -0.574631 128 128 128
0.511189 0.174560 0.139709 128 128 128
-0.297728 -0.043075 0.907154 128 128 128
-0.435885 0.264260 -0.453746 128 128 128
0.115975 0.574712 0.710878 128 128 128
0.404361 0.302419 0.982118 128 128 128
0.318562 -0.164029 0.785057 128 128 128
0.420039 -0.015997 -0.431212 128 128 128
-0.428389 -0.177570 -0.813926 128 128 128
0.048498 0.598270 0.166104 128 128 128
0.329679 0.100158 -1.200674 128 128 128
-0.416310 0.380549 0.458997 128 128 128
0.254435 0.160928 1.113335 128 128 128
0.417170 -0.062705 0.969863 128 128 128
-0.222870 -0.022167 1.179349 128 128 128
0.438131 0.049141 0.584859 128 128 128
0.529309 -0.186604 0.619530 128 128 128
-0.162292 0.377841 -0.600489 128 128 128
-0.201539 0.584996 0.461706 128 128 128
-0.402335 0.061990 -0.843982 128 128 128
-0.434239 -0.039472 0.775928 128 128 128
-0.433692 -0.019482 -1.065897 128 128 128
0.358131 -0.193946 0.384427 128 128 128
-0.382561 0.023762 -0.846397 128 128 128
0.425869 -0.210008 0.634859 128 128 128
-0.429045 0.365792 0.231029 128 128 128
-0.498681 0.021757 -0.105345 128 128 128
-0.418243 -0.118094 0.897867 128 128 128
0.105163 0.255965 -0.933292 128 128 128
-0.219194 -0.045058 1.188502 128 128 128
-0.119136 0.260043 -0.878081 128 128 128
0.171172 0.045163 1.163284 128 128 128
0.255000 0.132988 -1.186794 128 128 128
-0.482670 -0.148100 -0.899564 128 128 128
-0.046711 -0.193649 0.674790 128 128 128
0.441020 0.161063 0.643563 128 128 128
-0.201454 -0.190282 0.636166 128 128 128
0.371306 -0.089607 1.143716 128 128 128
-0.146674 0.580269 -0.158219 128 128 128
-0.445103 0.244704 0.829536 128 128 128
-0.466801 0.250035 -0.270540 128 128 128
-0.377452 -0.187057 0.019379 128 128 128
-0.430124 0.347763 -0.106358 128 128 128
0.470156 -0.249009 -1.118371 128 128 128
-0.162493 0.245319 -0.885649 128 128 128
-0.488604 0.120650 -1.042622 128 128 128
0.308546 -0.014698 -0.967526 128 128 128
-0.183572 0.581963 -0.136552 128 128 128
-0.456831 0.131234 -1.033901 128 128 128
-0.228944 -0.215661 -1.156672 128 128 128
0.313019 0.566014 0.331282 128 128 128
0.392496 -0.193369 -1.208087 128 128 128
-0.389922 0.447723 0.385095 128 128 128
-0.500221 0.076476 -1.028870 128 128 128
0.074567 0.466977 0.939136 128 128 128
0.491196 -0.161428 -0.640765 128 128 128
-0.371849 -0.049062 0.998219 128 128 128
0.507361 -0.122309 0.988920 128 128 128
-0.323383 0.034549 0.837356 128 128 128
-0.265406 0.597560 0.145218 128 128 128
0.013916 0.329428 1.054659 128 128 128
0.194070 0.601369 0.122202 128 128 128
-0.252497 -0.024206 -0.871048 128 128 128
-0.462199 0.122728 1.064545 128 128 128
-0.500901 -0.006776 -1.113109 128 128 128
-0.429273 0.066159 -0.394921 128 128 128
0.501704 -0.170257 -1.116750 128 128 128
0.359440 0.119088 -0.724469 128 128 128
0.493145 0.048313 0.612167 128 128 128
0.517577 -0.067519 1.101934 128 128 128
-0.280501 -0.197920 -0.273001 128 128 128
0.470240 -0.154896 0.862086 128 128 128
0.430082 -0.155700 -0.623836 128 128 128
0.181180 -0.192332 0.106756 128 128 128
0.443044 0.314745 0.536900 128 128 128
0.464318 -0.208408 -0.547591 128 128 128
0.260377 0.554362 -0.236634 128 128 128
-0.148546 -0.198958 -0.299896 128 128 128
-0.501517 -0.014037 1.056331 128 128 128
-0.422427 0.067238 -0.235815 128 128 128
0.525658 -0.190497 0.534243 128 128 128
-0.420813 -0.134941 -0.330658 128 128 128
-0.428687 -0.085160 -0.194318 128 128 128
-0.373255 -0.026007 0.718423 128 128 128
-0.482288 -0.016219 -0.974253 128 128 128
-0.444255 -0.116114 -0.947011 128 128 128
-0.324252 0.577207 0.213632 128 128 128
0.336248 0.064150 -0.742041 128 128 128
0.453798 0.014440 0.654825 128 128 128
-0.474085 -0.091559 -0.632892 128 128 128
0.311480 -0.196141 -0.369401 128 128 128
0.412349 0.438924 0.280103 128 128 128
0.449047 0.109993 -1.127216 128 128 128
0.414150 -0.102142 -0.452181 128 128 128
0.389889 0.451610 -0.386123 128 128 128
-0.239242 -0.150130 -1.322003 128 128 128
0.361286 -0.022762 -0.679751 128 128 128
0.119928 -0.213062 -1.145490 128 128 128
0.259325 -0.114659 1.197807 128 128 128
-0.438156 0.264755 0.186099 128 128 128
-0.241495 0.010296 1.180417 128 128 128
-0.332713 -0.034719 0.972586 128 128 128
0.510894 0.025475 1.015734 128 128 128
-0.378921 -0.103833 0.867827 128 128 128
0.379334 -0.125501 0.660110 128 128 128
-0.095983 -0.149456 1.165665 128 128 128
0.032647 0.236216 1.148404 128 128 128
-0.440997 -0.084510 0.975953 128 128 128
-0.411566 -0.086467 0.273666 128 128 128
-0.290285 -0.056704 -0.930750 128 128 128
0.343960 -0.150669 0.911930 128 128 128
0.500713 -0.212364 0.988722 128 128 128
0.419020 -0.237817 0.843668 128 128 128
-0.445767 -0.243063 -0.786944 128 128 128
0.278679 0.258421 1.101738 128 128 128
-0.334313 -0.139829 0.877439 128 128 128
0.444678 -0.036690 -0.674057 128 128 128
0.380351 0.506267 -0.120214 128 128 128
-0.339769 -0.185715 0.239782 128 128 128
0.340421 0.302313 -0.666466 128 128 128
-0.314221 -0.132603 0.823913 128 128 128
-0.373395 0.360182 -0.574338 128 128 128
0.419133 0.329185 0.940731 128 128 128
0.217596 -0.198342 0.270860 128 128 128
-0.059427 0.595681 0.242998 128 128 128
0.411320 0.038707 0.906089 128 128 128
-0.074260 0.571769 -0.208344 128 128 128
0.492872 0.099460 1.049964 128 128 128
-0.289781 0.585895 0.402476 128 128 128
-0.112711 0.256903 -0.917520 128 128 128
-0.305865 0.019251 -0.739177 128 128 128
-0.371455 -0.306908 0.864537 128 128 128
0.125580 0.135821 -1.310034 128 128 128
-0.508072 -0.265689 -0.993346 128 128 128
-0.303527 -0.227974 0.839935 128 128 128
0.230554 0.591039 0.053261 128 128 128
-0.428116 0.055393 0.440364 128 128 128
0.097297 -0.126296 1.159953 128 128 128
0.456575 -0.101469 1.024373 128 128 128
0.088044 -0.211892 -0.976501 128 128 128
0.085595 -0.190478 0.022589 128 128 128
-0.398118 0.433927 -0.202882 128 128 128
0.047083 -0.214061 -1.159979 128 128 128
-0.460619 0.054737 0.374545 128 128 128
-0.266655 -0.036883 1.165985 128 128 128
-0.116383 0.558378 -0.249219 128 128 128
-0.452478 0.159559 -0.781242 128 128 128
-0.505874 -0.180268 0.660832 128 128 128
-0.044868 -0.186124 0.732135 128 128 128
0.451929 0.014263 0.657697 128 128 128
-0.068562 0.003428 -1.382644 128 128 128
-0.336486 0.004979 1.159280 128 128 128
-0.492004 0.235126 0.081145 128 128 128
0.398315 0.353729 0.968084 128 128 128
-0.325179 -0.048127 0.940566 128 128 128
0.282625 -0.204018 -0.420582 128 128 128
0.510433 0.230922 0.112015 128 128 128
0.353385 0.038680 -1.042108 128 128 128
0.361938 0.373036 0.971723 128 128 128
-0.118262 0.154637 1.137959 128 128 128
0.157106 0.587969 0.579987 128 128 128
0.251584 -0.218401 -0.741009 128 128 128
0.439246 0.155142 -0.307304 128 128 128
0.259259 -0.222915 -1.132228 128 128 128
0.489141 0.225753 -0.468926 128 128 128
0.520217 -0.077643 -0.729230 128 128 128
0.353804 -0.139426 0.780196 128 128 128
0.033248 0.275811 -0.839492 128 128 128
0.344980 -0.148616 0.865977 128 128 128
0.391926 0.114322 -0.885765 128 128 128
-0.268722 0.586070 -0.025032 128 128 128
0.418498 0.404928 0.361981 128 128 128
0.482212 0.133629 -0.432484 128 128 128
0.427905 -0.033707 -1.085756 128 128 128
-0.457504 -0.205680 -0.524014 128 128 128
-0.406223 0.289547 0.972218 128 128 128
0.150299 -0.173414 1.117072 128 128 128
0.325935 -0.218060 -0.707109 128 128 128
-0.221777 -0.167020 -1.370306 128 128 128
0.111864 0.264137 -0.916323 128 128 128
0.536953 0.000387 -1.096007 128 128 128
-0.412068 0.364168 0.692153 128 128 128
-0.506231 0.076493 -0.957903 128 128 128
0.186775 0.551557 -0.284574 128 128 128
0.015020 0.219813 -1.067923 128 128 128
-0.434059 0.123701 -0.765125 128 128 128
0.381109 0.081380 0.787650 128 128 128
0.509983 0.074065 0.598584 128 128 128
-0.430579 0.042915 -1.266003 128 128 128
-0.344943 0.581863 0.406416 128 128 128
0.457241 -0.189732 -0.280177 128 128 128
-0.455776 0.094561 0.644858 128 128 128
-0.391174 0.436223 0.674211 128 128 128
-0.282840 0.576338 -0.002493 128 128 128
-0.509134 0.043740 0.956991 128 128 128
-0.509084 -0.050481 -1.160731 128 128 128
-0.392916 0.453125 0.398661 128 128 128
-0.431093 0.325806 0.420108 128 128 128
0.000795 0.602291 0.231643 128 128 128
-0.145594 0.200097 -0.962900 128 128 128
-0.369333 0.489306 0.084559 128 128 128
0.472714 -0.215479 -1.111514 128 128 128
-0.459578 -0.046200 -0.646692 128 128 128
0.523828 0.152688 -0.237960 128 128 128
0.500407 0.140082 0.399349 128 128 128
0.500070 0.165302 0.926806 128 128 128
-0.404709 -0.199721 -0.591147 128 128 128
-0.422147 0.010257 -0.116537 128 128 128
0.525419 -0.098644 -0.493730 128 128 128
-0.411409 -0.004234 0.819826 128 128 128
-0.264630 -0.177174 0.882435 128 128 128
-0.492935 -0.058411 -0.014827 128 128 128
0.326634 -0.198883 0.643561 128 128 128
-0.308637 -0.044535 0.932783 128 128 128
0.337687 -0.209300 -0.616113 128 128 128
0.154202 -0.196133 0.568677 128 128 128
-0.120496 0.061687 1.122071 128 128 128
0.395243 -0.144233 0.928726 128 128 128
-0.324571 -0.145828 0.631120 128 128 128
0.101136 0.577932 0.731980 128 128 128
0.512882 0.150721 0.429652 128 128 128
-0.287665 0.493169 -0.381050 128 128 128
-0.411867 -0.036819 -0.749275 128 128 128
0.469500 -0.043192 -0.223501 128 128 128
0.009779 0.584056 -0.095820 128 128 128
0.338381 -0.192077 0.013275 128 128 128
0.420933 0.046085 -0.174895 128 128 128
-0.198140 0.515955 -0.367909 128 128 128
-0.369284 0.119195 0.664494 128 128 128
0.117492 0.064732 1.145484 128 128 128
0.088498 0.568655 0.758944 128 128 128
-0.192126 -0.161996 -1.380185 128 128 128
0.409905 -0.114893 -1.086174 128 128 128
0.515619 -0.001353 0.729666 128 128 128
-0.485889 0.084541 -0.676538 128 128 128
0.510638 0.130803 0.446655 128 128 128
-0.297110 0.569096 0.239688 128 128 128
0.044206 0.576259 0.733588 128 128 128
0.484608 -0.106233 -0.978972 128 128 128
0.339574 -0.072670 0.849632 128 128 128
0.146229 -0.155102 0.966515 128 128 128
0.473582 0.219459 -0.483363 128 128 128
0.509169 -0.170807 0.114793 128 128 128
0.123559 0.258868 -0.953437 128 128 128
-0.453803 0.280784 -0.198487 128 128 128
0.464567 0.305954 -0.107477 128 128 128
-0.173309 0.595468 0.229142 128 128 128
0.432940 -0.115485 0.580260 128 128 128
-0.497952 0.052097 -0.389879 128 128 128
0.418678 -0.071728 0.680874 128 128 128
0.374610 0.445034 -0.411732 128 128 128
0.448447 -0.204011 -0.289085 128 128 128
-0.478577 0.187990 -0.713328 128 128 128
0.205077 0.555342 -0.260698 128 128 128
0.311647 -0.092531 -0.933609 128 128 128
-0.038187 0.568717 -0.230258 128 128 128
-0.297123 -0.120212 -1.341550 128 128 128
-0.476861 0.003528 0.356135 128 128 128
-0.488954 -0.071865 0.850446 128 128 128
-0.355974 0.078349 0.890042 128 128 128
-0.128547 0.600278 0.246697 128 128 128
0.520579 0.012508 -0.092941 128 128 128
0.424046 -0.004833 0.796149 128 128 128
0.324439 0.525605 -0.324469 128 128 128
0.471998 -0.046168 0.539656 128 128 128
0.148905 0.105326 -1.346907 128 128 128
0.296603 0.560079 0.724432 128 128 128
-0.519816 0.063514 -0.987986 128 128 128
-0.068205 -0.195324 -0.117179 128 128 128
-0.323913 0.560551 0.481798 128 128 128
0.050569 0.424064 -0.546205 128 128 128
-0.111985 -0.014830 1.168473 128 128 128
0.380602 -0.025871 -0.692363 128 128 128
-0.403976 0.138186 0.081363 128 128 128
0.416180 0.079168 0.654607 128 128 128
-0.116229 -0.091561 -1.349383 128 128 128
-0.335106 0.251234 -0.770900 128 128 128
0.131649 -0.209720 -0.618006 128 128 128
0.099329 0.124836 -1.328562 128 128 128
0.524426 -0.054943 -0.375421 128 128 128
0.205925 0.545286 -0.315735 128 128 128
0.512501 0.154266 0.605371 128 128 128
0.347223 -0.215371 -0.717999 128 128 128
0.518851 0.091342 -1.032185 128 128 128
0.453416 0.300430 -0.393437 128 128 128
0.495686 -0.111713 -1.053170 128 128 128
0.508659 -0.313387 -0.931023 128 128 128
0.468019 0.219211 -0.739547 128 128 128
0.298754 -0.089470 1.097939 128 128 128
0.479596 0.253735 0.783592 128 128 128
-0.472507 -0.101740 -0.618597 128 128 128
-0.496484 0.060444 0.750093 128 128 128
0.293134 0.556524 0.751640 128 128 128
-0.412387 -0.108456 0.763219 128 128 128
-0.439424 0.276996 -0.379715 128 128 128
-0.435180 -0.299858 -0.945136 128 128 128
0.174899 0.324116 -0.674497 128 128 128
0.500382 0.185877 -0.677104 128 128 128
0.380432 -0.068025 -1.300478 128 128 128
-0.266095 0.047291 -1.325203 128 128 128
-0.225705 -0.129192 1.118883 128 128 128
-0.262718 -0.110210 -0.871988 128 128 128
0.198392 -0.196653 0.296457 128 128 128
0.356660 0.101143 -1.242362 128 128 128
0.230144 -0.191804 0.121062 128 128 128
-0.341328 -0.190609 -0.488628 128 128 128
0.526150 -0.296490 -0.806991 128 128 128
0.511384 -0.148051 0.791919 128 128 128
0.501688 -0.058312 -0.661978 128 128 128
0.304142 -0.195272 -0.009089 128 128 128
0.513245 0.120530 0.811340 128 128 128
-0.136658 -0.193640 0.670129 128 128 128
0.499258 0.082612 0.708868 128 128 128
-0.364881 -0.263085 -0.769880 128 128 128
0.378260 0.506253 0.252753 128 128 128
0.356218 -0.130353 0.947510 128 128 128
-0.380574 -0.201252 0.336017 128 128 128
0.419058 -0.194815 0.477979 128 128 128
0.511992 -0.049562 0.999037 128 128 128
-0.327237 0.221640 1.078892 128 128 128
0.232785 -0.194291 -0.254907 128 128 128
0.044443 -0.162516 -1.359535 128 128 128
0.462923 0.303203 -0.230734 128 128 128
0.186582 0.309184 1.060638 128 128 128
0.539922 -0.280457 -0.797548 128 128 128
0.469421 0.305810 -0.561527 128 128 128
-0.044891 -0.145783 1.132101 128 128 128
-0.423904 -0.180325 -0.350947 128 128 128
0.523215 0.126134 0.574034 128 128 128
0.427200 0.001800 -1.176350 128 128 128
0.124006 0.591488 0.105331 128 128 128
0.219802 -0.079854 -1.365729 128 128 128
-0.343084 -0.137575 0.804484 128 128 128
-0.351826 -0.201848 0.317580 128 128 128
0.420539 0.418951 -0.130101 128 128 128
0.476223 -0.213422 -0.969425 128 128 128
0.437756 0.149004 -0.363436 128 128 128
0.144185 -0.214773 -1.286711 128 128 128
0.000803 -0.013569 -1.345423 128 128 128
-0.411633 0.135032 -1.190333 128 128 128
0.459763 -0.183209 -0.645817 128 128 128
0.490636 -0.075537 -0.771469 128 128 128
0.196347 0.563001 -0.254885 128 128 128
0.369711 -0.212646 -1.029860 128 128 128
0.403258 -0.223403 0.616658 128 128 128
0.360985 -0.152761 1.033776 128 128 128
-0.409333 0.180909 1.119308 128 128 128
0.148891 0.014307 1.145011 128 128 128
-0.320786 0.554609 0.694384 128 128 128
-0.434876 0.018418 -1.108112 128 128 128
0.125607 0.235809 -1.035594 128 128 128
-0.267721 0.223881 -0.992312 128 128 128
0.505897 0.075432 0.432544 128 128 128
-0.435193 0.267315 0.452638 128 128 128
0.456205 0.097840 0.138341 128 128 128
0.284025 -0.157093 -0.712795 128 128 128
0.086456 -0.207620 -0.487985 128 128 128
0.382127 0.314285 -0.658863 128 128 128
-0.369978 -0.009807 1.150054 128 128 128
0.423335 -0.131092 -1.159656 128 128 128
-0.247487 -0.153127 -1.346178 128 128 128
-0.274587 -0.197652 -0.163891 128 128 128
-0.133446 0.256549 -0.838366 128 128 128
-0.222539 -0.195038 0.000267 128 128 128
-0.443233 0.149516 -0.505086 128 128 128
-0.362290 -0.268015 0.904174 128 128 128
0.235494 -0.163419 0.917076 128 128 128
0.247898 -0.212452 -0.696265 128 128 128
-0.473524 -0.019565 0.848370 128 128 128
-0.396545 0.431278 0.133920 128 128 128
-0.485160 -0.077965 -0.032230 128 128 128
-0.498733 -0.128654 -1.128479 128 128 128
-0.279030 -0.206232 -0.511147 128 128 128
0.415247 0.440575 -0.176269 128 128 128
0.357966 0.063707 -0.777514 128 128 128
-0.490886 -0.157814 0.256939 128 128 128
-0.473956 -0.169448 -0.480068 128 128 128
0.215474 -0.191250 0.097592 128 128 128
-0.171759 0.267844 -0.803091 128 128 128
-0.486666 -0.052463 -0.459530 128 128 128
-0.389864 0.261333 -0.741931 128 128 128
0.506230 -0.112953 -0.638233 128 128 128
0.513953 0.116643 0.526026 128 128 128
-0.032333 -0.216471 -1.321121 128 128 128
-0.047055 0.224044 -1.088643 128 128 128
-0.449882 0.276386 0.218509 128 128 128
0.016089 0.555128 -0.312609 128 128 128
-0.392893 0.203294 1.099200 128 128 128
0.206094 0.287598 -0.724306 128 128 128
0.344981 0.554876 0.156526 128 128 128
-0.027435 0.579394 0.736376 128 128 128
0.036648 0.540568 -0.333575 128 128 128
-0.267865 0.584816 0.574883 128 128 128
0.496757 -0.191469 -0.194530 128 128 128
0.394188 0.364337 -0.535923 128 128 128
-0.407879 -0.056660 -0.954924 128 128 128
-0.090601 -0.203750 -0.621598 128 128 128
0.083438 0.308416 1.073385 128 128 128
0.518542 0.055689 -0.675333 128 128 128
0.388468 -0.200561 0.401217 128 128 128
0.030971 -0.202568 -1.291851 128 128 128
0.437259 0.021305 -1.033896 128 128 128
0.140543 -0.213288 -0.995421 128 128 128
0.140825 0.261981 -0.923446 128 128 128
-0.456005 -0.142149 0.310335 128 128 128
-0.330196 -0.093300 1.146622 128 128 128
0.356464 0.027519 -0.899385 128 128 128
0.486970 -0.089302 1.108858 128 128 128
-0.069694 0.588835 -0.041843 128 128 128
0.268139 0.180979 -1.137071 128 128 128
0.133960 -0.214423 -1.164201 128 128 128
-0.506806 0.018891 -0.761406 128 128 128
0.449202 -0.280002 0.773439 128 128 128
-0.491752 -0.135473 0.496273 128 128 128
-0.377788 0.471756 0.624443 128 128 128
-0.364032 -0.222588 -1.206962 128 128 128
0.081985 -0.212317 -0.916133 128 128 128
0.256533 0.582949 0.291513 128 128 128
0.014714 -0.194024 -0.059083 128 128 128
-0.251662 0.262240 -0.736871 128 128 128
0.510199 0.016264 0.920644 128 128 128
-0.353263 -0.215519 -0.676026 128 128 128
-0.450677 -0.174946 -0.074155 128 128 128
0.090066 0.010812 -1.405090 128 128 128
-0.476998 -0.108328 0.523562 128 128 128
0.078992 -0.147281 1.099938 128 128 128
0.406631 0.013091 -0.766050 128 128 128
-0.441614 0.139300 -1.033836 128 128 128
0.487087 0.075989 -1.108493 128 128 128
-0.315342 -0.155716 1.077543 128 128 128
0.398641 -0.097797 -1.104885 128 128 128
-0.264735 0.499823 0.906751 128 128 128
0.013011 -0.206555 -0.762260 128 128 128
-0.074518 0.586708 -0.043891 128 128 128
-0.258680 -0.213921 -1.212080 128 128 128
-0.434816 -0.036568 -0.412776 128 128 128
0.521204 0.042580 -0.593962 128 128 128
0.393142 -0.117761 0.992540 128 128 128
-0.125213 0.599414 0.097216 128 128 128
-0.191075 0.579215 -0.146130 128 128 128
-0.460989 -0.214490 -0.822390 128 128 128
0.036630 0.239461 -0.940306 128 128 128
-0.414274 0.144650 -0.006278 128 128 128
0.461805 -0.195580 0.221538 128 128 128
-0.287877 -0.195063 0.870590 128 128 128
0.222095 0.255768 -0.891034 128 128 128
-0.421728 0.365900 -0.492018 128 128 128
0.514046 0.008999 -0.099379 128 128 128
0.392746 -0.304687 -0.946133 128 128 128
-0.304476 0.206934 -1.053671 128 128 128
-0.208560 0.491862 -0.411068 128 128 128
0.157252 -0.202947 -0.376514 128 128 128
-0.345880 -0.078140 0.597984 128 128 128
-0.493347 -0.114148 0.920179 128 128 128
-0.425801 0.298335 0.889977 128 128 128
-0.453932 -0.078689 -0.761182 128 128 128
0.078412 -0.142813 1.135215 128 128 128
0.493752 -0.063565 0.703268 128 128 128
-0.467541 0.216111 -0.658930 128 128 128
-0.438625 0.327224 -0.140355 128 128 128
0.455560 0.293056 0.902799 128 128 128
0.429185 0.404066 -0.095218 128 128 128
-0.485080 0.150111 -0.008347 128 128 128
-0.280101 0.589731 0.592246 128 128 128
0.362384 0.078681 -1.226378 128 128 128
0.466477 0.189924 0.055556 128 128 128
0.101469 -0.196798 0.480077 128 128 128
0.516006 0.096328 -0.678018 128 128 128
0.463036 0.238943 1.018811 128 128 128
0.374927 -0.098878 1.145823 128 128 128
0.327324 -0.181788 0.702804 128 128 128
-0.505166 0.117966 -0.965842 128 128 128
0.515358 0.053427 0.669369 128 128 128
-0.202689 0.589707 -0.078680 128 128 128
0.183876 -0.183921 0.731087 128 128 128
0.201633 -0.217339 -1.239314 128 128 128
0.517114 0.041983 0.772261 128 128 128
-0.434479 -0.197463 0.979591 128 128 128
-0.188927 0.540317 0.891279 128 128 128
0.514252 -0.239999 -0.903492 128 128 128
0.444912 -0.059943 -0.447132 128 128 128
0.407763 0.444199 -0.411195 128 128 128
0.479261 0.103652 0.843984 128 128 128
0.309561 -0.102774 -0.986766 128 128 128
-0.034325 0.117970 -1.380661 128 128 128
-0.231948 0.005148 1.161064 128 128 128
0.504768 0.230658 -0.103144 128 128 128
-0.142683 -0.194649 0.150414 128 128 128
-0.246468 -0.214340 -1.332941 128 128 128
-0.343091 0.035653 0.592150 128 128 128
0.035571 -0.212582 -1.101635 128 128 128
-0.360377 0.192114 -1.070843 128 128 128
0.509860 -0.070497 0.200012 128 128 128
-0.499966 0.037366 0.528574 128 128 128
