ply
format ascii 1.0
element vertex 1177
property float x
property float y
property float z
property uchar red
property uchar green
property uchar blue
end_header
0.636083 -0.489528 0.067855 128 128 128
0.139318 0.895298 -0.067860 128 128 128
0.622060 -1.847947 0.116130 128 128 128
0.328607 -1.013741 -0.618031 128 128 128
-0.435520 -1.510578 0.461026 128 128 128
-0.361388 -0.050213 0.526472 128 128 128
0.294998 0.459072 -0.248215 128 128 128
0.100562 -0.868485 0.622604 128 128 128
0.594987 -1.073926 -0.276457 128 128 128
0.638624 -0.771091 0.092547 128 128 128
0.204982 0.758516 0.290769 128 128 128
-0.070169 1.031338 0.174030 128 128 128
-0.576012 0.123618 -0.342586 128 128 128
-0.580579 -1.770759 0.193081 128 128 128
0.506650 0.183311 -0.243650 128 128 128
0.603690 -1.642095 -0.341205 128 128 128
0.171447 0.797332 -0.012820 128 128 128
-0.569700 -1.946454 -0.258144 128 128 128
0.205822 0.483087 -0.339442 128 128 128
-0.158664 0.423434 -0.386776 128 128 128
-0.524563 -1.742176 0.367848 128 128 128
-0.194297 -1.943036 -0.586393 128 128 128
-0.005653 1.015475 0.294694 128 128 128
0.142223 0.091374 0.564448 128 128 128
-0.614579 -0.292596 -0.143177 128 128 128
0.084505 0.990568 0.328793 128 128 128
-0.617936 -1.280709 -0.136347 128 128 128
-0.141732 -1.761624 0.630380 128 128 128
0.199242 0.975758 -0.161576 128 128 128
0.184139 0.725290 -0.004459 128 128 128
-0.481719 -1.046062 -0.470919 128 128 128
0.057297 -0.323189 -0.675731 128 128 128
0.243427 0.815843 0.283812 128 128 128
-0.629957 -0.422978 -0.063838 128 128 128
-0.451037 -0.611247 -0.474426 128 128 128
0.649356 -0.736564 -0.085299 128 128 128
0.651948 -1.007962 0.021490 128 128 128
0.628633 -1.234677 0.160933 128 128 128
-0.379389 -0.633157 0.519313 128 128 128
-0.452016 0.295923 -0.303230 128 128 128
0.205892 -1.177828 0.611728 128 128 128
0.338675 -1.146680 0.550190 128 128 128
-0.049150 -1.773048 0.645626 128 128 128
0.392469 -1.949097 -0.270743 128 128 128
-0.202092 0.882124 -0.036753 128 128 128
0.242421 -0.173328 0.586745 128 128 128
-0.391192 -1.059004 0.483519 128 128 128
-0.548007 -1.154176 -0.391254 128 128 128
0.024050 -0.364876 0.626289 128 128 128
-0.063570 -1.895803 0.587994 128 128 128
0.235808 0.903704 0.249048 128 128 128
0.223777 0.642620 0.152343 128 128 128
0.257453 0.849869 -0.319720 128 128 128
-0.473762 -1.384113 -0.464454 128 128 128
0.141822 -1.957953 0.197480 128 128 128
-0.487494 -1.152467 0.381133 128 128 128
0.295396 -0.316653 0.553079 128 128 128
0.128067 0.028104 -0.626282 128 128 128
0.302553 0.705888 0.108307 128 128 128
-0.452758 -1.097766 0.424988 128 128 128
0.044118 0.949413 -0.350961 128 128 128
-0.180551 0.336521 0.315907 128 128 128
-0.356693 -0.891693 0.506746 128 128 128
-0.554214 -0.950702 -0.356084 128 128 128
0.672409 -1.731290 -0.156947 128 128 128
0.343329 -0.622850 0.550330 128 128 128
-0.121634 0.653072 0.290787 128 128 128
0.311345 -1.598957 0.572687 128 128 128
-0.094572 -1.934130 0.474475 128 128 128
-0.598600 -0.222489 -0.249142 128 128 128
-0.244610 0.401885 0.211960 128 128 128
-0.185578 -1.470891 0.619752 128 128 128
0.312658 -0.106689 0.561321 128 128 128
0.273781 0.290811 -0.482422 128 128 128
0.611277 -0.863541 -0.218858 128 128 128
0.022739 -0.750278 -0.677482 128 128 128
-0.635267 -0.607549 -0.074498 128 128 128
-0.357987 0.083194 -0.551250 128 128 128
0.452754 -1.325319 -0.525723 128 128 128
-0.619863 -1.417452 0.099540 128 128 128
0.542502 -1.503225 0.351414 128 128 128
-0.528934 -1.120775 -0.407971 128 128 128
0.057120 0.099244 -0.657550 128 128 128
-0.627758 -1.786843 -0.242128 128 128 128
0.587885 -0.818623 0.274497 128 128 128
0.181532 0.969388 0.227193 128 128 128
-0.339769 0.400100 -0.263178 128 128 128
-0.160133 -1.631464 -0.654928 128 128 128
0.296447 0.757504 -0.266831 128 128 128
0.646386 -1.207340 0.078184 128 128 128
0.564582 -1.520960 0.326245 128 128 128
0.380679 -0.717309 0.524499 128 128 128
0.038861 -0.258415 0.619773 128 128 128
0.243381 -1.934965 -0.629562 128 128 128
0.265576 -1.253477 0.588519 128 128 128
0.511917 0.253440 0.111988 128 128 128
-0.088735 0.851948 -0.253711 128 128 128
-0.057033 -1.948552 0.475207 128 128 128
0.582597 -1.895877 -0.123750 128 128 128
-0.175109 0.972014 0.266929 128 128 128
0.119220 -1.935483 -0.652867 128 128 128
0.043799 -1.675450 -0.678239 128 128 128
-0.440943 -0.957267 -0.506990 128 128 128
0.659891 -1.564437 -0.199302 128 128 128
-0.341915 -1.967828 0.195844 128 128 128
0.525369 0.266478 -0.013333 128 128 128
0.357481 -1.859886 -0.589760 128 128 128
0.604103 -0.985484 -0.249070 128 128 128
-0.001864 -0.178036 0.617726 128 128 128
-0.119476 -1.536896 -0.662491 128 128 128
0.030349 -0.044915 0.638128 128 128 128
0.443594 -1.790523 0.524445 128 128 128
0.626478 -0.246532 -0.138928 128 128 128
-0.306612 -0.416802 0.564120 128 128 128
0.637814 -1.886157 -0.011303 128 128 128
-0.226734 0.591356 -0.075041 128 128 128
0.422624 -0.993989 -0.541523 128 128 128
-0.497127 -1.449767 0.388051 128 128 128
0.242189 -1.933573 -0.204265 128 128 128
-0.383922 -0.114458 -0.534416 128 128 128
-0.038713 0.770620 -0.110937 128 128 128
-0.320482 1.056072 0.114788 128 128 128
0.592635 -0.079250 0.209556 128 128 128
-0.254858 0.255029 0.355408 128 128 128
0.245900 0.893765 0.180997 128 128 128
-0.307265 0.970189 0.081081 128 128 128
-0.193409 -1.571700 -0.646964 128 128 128
-0.151015 0.055797 -0.623467 128 128 128
-0.276455 -0.965743 -0.605977 128 128 128
0.419916 -0.153670 0.478874 128 128 128
0.610258 -0.228956 0.166636 128 128 128
0.560659 -1.295848 0.318699 128 128 128
0.097029 0.936056 -0.374651 128 128 128
-0.535948 -0.446071 -0.354720 128 128 128
0.621091 -0.910803 0.193963 128 128 128
-0.452001 0.361022 -0.025896 128 128 128
-0.093304 -1.768277 -0.655025 128 128 128
-0.607090 -0.796886 -0.254820 128 128 128
0.238623 0.996071 0.062460 128 128 128
0.316522 -0.958479 0.562172 128 128 128
0.149651 0.433552 -0.408464 128 128 128
0.203474 0.843638 0.110526 128 128 128
0.347486 -0.454328 -0.572400 128 128 128
0.448458 -1.749422 -0.526081 128 128 128
0.669296 -1.754015 -0.104243 128 128 128
-0.180403 0.602752 -0.278106 128 128 128
0.245069 0.730736 -0.157113 128 128 128
-0.345104 -0.355992 -0.545248 128 128 128
0.080679 0.012423 0.610914 128 128 128
-0.235328 -1.330607 -0.629550 128 128 128
-0.312352 0.970238 -0.152717 128 128 128
0.005083 0.393080 0.313872 128 128 128
0.195989 0.435222 -0.369104 128 128 128
0.050081 0.863233 0.063631 128 128 128
-0.590522 0.097394 0.176333 128 128 128
0.121333 -1.898966 0.606442 128 128 128
0.070249 0.833174 -0.011562 128 128 128
-0.657336 -0.143466 0.003067 128 128 128
-0.029632 -1.812387 -0.670345 128 128 128
-0.015537 -0.356028 0.621665 128 128 128
-0.007164 -0.711826 0.639444 128 128 128
0.502369 -1.603514 -0.488899 128 128 128
-0.335301 0.977649 -0.058153 128 128 128
-0.512388 -1.875506 0.257518 128 128 128
0.646039 -0.576193 -0.049573 128 128 128
0.561521 -1.487150 0.328479 128 128 128
-0.244482 -1.946016 0.193577 128 128 128
0.162385 0.949060 -0.387524 128 128 128
0.321415 0.884225 -0.259271 128 128 128
-0.634214 -0.754607 -0.017237 128 128 128
0.447569 0.355250 -0.077560 128 128 128
0.423229 0.274415 0.268993 128 128 128
0.269707 0.743576 -0.308144 128 128 128
-0.536059 -1.852692 0.328866 128 128 128
0.454702 0.065827 -0.412395 128 128 128
0.156052 0.554993 0.176907 128 128 128
-0.210605 -0.555117 -0.633080 128 128 128
0.501232 -0.986080 -0.486226 128 128 128
-0.630011 -0.308724 0.135923 128 128 128
-0.377155 -1.953291 0.368832 128 128 128
0.385247 -0.137561 -0.532935 128 128 128
0.607455 -1.474757 0.225367 128 128 128
-0.608206 0.034494 0.095486 128 128 128
-0.148407 -1.690866 0.628701 128 128 128
-0.339665 -0.635764 0.537355 128 128 128
-0.218870 0.712959 -0.135562 128 128 128
-0.327182 1.039608 -0.186576 128 128 128
0.094547 0.447206 0.263256 128 128 128
0.631319 -1.420830 -0.234377 128 128 128
-0.309929 1.026063 0.099075 128 128 128
-0.595806 0.110591 0.169584 128 128 128
0.599121 -0.494488 -0.238925 128 128 128
-0.321034 -0.232051 0.559659 128 128 128
0.513695 -0.840175 0.382086 128 128 128
0.500092 -1.726290 -0.495039 128 128 128
-0.550377 -0.653752 -0.332561 128 128 128
0.260710 -0.299187 0.583447 128 128 128
-0.485966 -0.751701 -0.440635 128 128 128
0.596101 -0.433526 -0.270295 128 128 128
-0.439903 -1.346535 0.445445 128 128 128
0.295911 0.164646 0.511180 128 128 128
-0.631301 -1.356810 -0.112863 128 128 128
0.404271 -1.896324 0.478616 128 128 128
-0.061200 0.236470 0.391287 128 128 128
-0.290928 0.772938 -0.083719 128 128 128
-0.279093 0.533045 0.126882 128 128 128
-0.475173 -1.388212 -0.465036 128 128 128
0.319098 0.604372 0.007051 128 128 128
-0.249332 -0.980032 0.576976 128 128 128
0.538593 -0.872706 0.344937 128 128 128
-0.111356 -0.390309 0.617816 128 128 128
0.141391 0.257564 -0.579057 128 128 128
0.021345 0.999026 0.352165 128 128 128
-0.028100 -1.351498 0.637148 128 128 128
0.029914 0.001901 0.638440 128 128 128
-0.247666 -0.276632 -0.599118 128 128 128
0.071577 0.656580 0.426590 128 128 128
0.349442 -1.444487 0.541742 128 128 128
0.557146 -1.413452 0.331114 128 128 128
0.213639 0.325584 0.236865 128 128 128
0.449525 -1.231436 -0.510356 128 128 128
-0.635372 -0.735650 -0.084074 128 128 128
-0.090775 0.230405 -0.645972 128 128 128
-0.560927 -0.627656 -0.325609 128 128 128
0.111074 0.671758 0.391556 128 128 128
-0.170904 -0.914888 0.611122 128 128 128
-0.572240 -0.451796 0.314289 128 128 128
-0.302249 1.017141 0.172474 128 128 128
0.455986 -1.234997 -0.519033 128 128 128
0.116418 0.999128 -0.189145 128 128 128
0.362125 -1.007497 0.540845 128 128 128
0.476877 -0.871779 0.430464 128 128 128
-0.543138 -0.011195 -0.334779 128 128 128
0.323445 0.670853 -0.067635 128 128 128
-0.348829 0.169056 0.275449 128 128 128
0.274166 -0.854444 0.579957 128 128 128
-0.559506 -0.356414 -0.323788 128 128 128
0.302486 0.521886 -0.033017 128 128 128
-0.135435 0.172667 0.432611 128 128 128
0.094922 0.992632 -0.263859 128 128 128
-0.186938 0.155707 0.476528 128 128 128
0.297257 0.471784 -0.145740 128 128 128
-0.348872 -0.743995 0.532142 128 128 128
0.010032 0.159225 0.322709 128 128 128
-0.589628 -1.649480 0.214792 128 128 128
0.614981 -0.085145 -0.158378 128 128 128
0.262773 -0.928103 0.586968 128 128 128
-0.195369 -0.236479 -0.632789 128 128 128
0.656343 -1.184344 0.013893 128 128 128
-0.643591 -1.610676 -0.093781 128 128 128
0.412467 -0.243723 0.508907 128 128 128
-0.194098 -1.954727 -0.412631 128 128 128
-0.083529 -1.023075 -0.669747 128 128 128
-0.559399 -0.101452 -0.313420 128 128 128
0.606823 -1.036496 -0.237592 128 128 128
-0.082911 0.800957 -0.415675 128 128 128
-0.558567 -1.903949 0.327858 128 128 128
-0.012951 0.785786 -0.414002 128 128 128
-0.354039 0.488369 -0.013151 128 128 128
0.615927 -0.757196 0.163237 128 128 128
0.558918 -1.805221 0.368888 128 128 128
-0.418533 -1.910327 0.246596 128 128 128
-0.304813 0.410670 -0.371136 128 128 128
-0.262099 -1.324520 -0.618393 128 128 128
-0.362168 -0.582654 -0.552544 128 128 128
0.069189 0.166859 0.420514 128 128 128
-0.058482 0.838923 0.167841 128 128 128
0.625633 -0.754968 -0.183104 128 128 128
-0.173578 -1.942000 -0.168541 128 128 128
-0.470749 -0.506844 -0.445415 128 128 128
0.336692 0.973767 0.218864 128 128 128
-0.448276 -0.317065 -0.469905 128 128 128
-0.474426 0.338182 0.000480 128 128 128
-0.631630 -1.446597 -0.131404 128 128 128
0.618107 -1.888313 0.021227 128 128 128
-0.273053 1.023079 -0.152814 128 128 128
-0.507205 -1.517751 0.378240 128 128 128
-0.310234 -1.968472 0.132646 128 128 128
0.358598 0.911818 -0.115653 128 128 128
-0.271294 -1.554315 0.565459 128 128 128
-0.616504 0.119590 -0.176000 128 128 128
0.094129 0.588692 0.357254 128 128 128
0.528466 -0.892110 -0.404570 128 128 128
-0.500143 -0.104766 0.381183 128 128 128
0.396362 -0.268993 -0.531455 128 128 128
-0.224006 0.857033 -0.300050 128 128 128
0.177969 -1.664305 -0.673671 128 128 128
0.562880 0.128190 -0.130536 128 128 128
0.111491 -1.886070 0.612658 128 128 128
0.283027 -0.458208 -0.611647 128 128 128
-0.324585 0.187360 0.276723 128 128 128
-0.070036 0.553548 -0.280507 128 128 128
0.267079 -1.625267 0.583422 128 128 128
0.101586 -1.362148 0.627183 128 128 128
-0.030875 0.713184 0.378645 128 128 128
-0.357040 -1.964781 -0.400702 128 128 128
0.353919 0.575062 -0.026599 128 128 128
0.436390 0.313219 0.234058 128 128 128
0.383987 -0.360197 0.505955 128 128 128
-0.355903 0.895106 0.003901 128 128 128
0.504630 -1.715483 0.429784 128 128 128
0.003149 0.671153 -0.324865 128 128 128
0.315116 -0.986284 0.560801 128 128 128
-0.615119 -0.190733 0.177698 128 128 128
0.304997 -1.028724 0.560162 128 128 128
-0.632608 -1.709635 0.067761 128 128 128
-0.507876 -1.687868 -0.450495 128 128 128
0.620823 -1.046272 -0.186288 128 128 128
0.557282 -1.389504 -0.409728 128 128 128
0.554580 -0.819760 0.318539 128 128 128
-0.138930 -1.704127 -0.667059 128 128 128
0.234453 -1.953159 -0.205260 128 128 128
-0.069037 -0.586500 -0.670599 128 128 128
0.124517 -1.512696 0.615921 128 128 128
0.323963 0.760474 -0.191580 128 128 128
0.355957 0.994896 -0.156257 128 128 128
0.329390 -0.941864 -0.611455 128 128 128
0.460726 -1.403157 0.442135 128 128 128
0.348117 -0.883158 0.542204 128 128 128
-0.185190 0.592467 0.223967 128 128 128
-0.286575 0.684145 0.036445 128 128 128
-0.143055 -0.619284 0.617191 128 128 128
0.058889 -1.940416 0.526779 128 128 128
-0.510117 -1.714420 -0.417252 128 128 128
0.025798 0.012146 0.617779 128 128 128
0.006605 -0.591606 0.638317 128 128 128
0.281372 0.012367 0.567778 128 128 128
0.616063 -0.920132 -0.223369 128 128 128
-0.139330 0.867657 0.065358 128 128 128
-0.271295 -0.401640 0.572881 128 128 128
-0.133232 0.975089 -0.369419 128 128 128
-0.074623 0.411689 -0.497873 128 128 128
-0.482684 -1.738087 0.445952 128 128 128
0.132887 0.993985 -0.252853 128 128 128
0.394759 -0.451830 0.505220 128 128 128
-0.001733 -1.596438 -0.688235 128 128 128
0.212439 -0.956667 -0.656695 128 128 128
0.380519 0.117028 -0.390616 128 128 128
-0.551612 -0.715869 -0.326615 128 128 128
0.626159 -0.672249 -0.200640 128 128 128
-0.596248 -1.929680 0.150982 128 128 128
0.058886 -0.588288 -0.669670 128 128 128
0.071948 -0.637559 0.629768 128 128 128
0.046791 -1.455119 0.630567 128 128 128
0.554484 -1.158051 -0.372658 128 128 128
0.631594 -0.453882 0.106627 128 128 128
0.261290 0.536075 -0.079220 128 128 128
-0.248980 -0.083628 -0.614284 128 128 128
-0.558378 -0.035170 -0.303560 128 128 128
-0.149015 0.824296 0.088811 128 128 128
0.004702 -0.578194 0.643056 128 128 128
0.483551 -1.601985 0.435008 128 128 128
0.588467 -0.287035 0.245654 128 128 128
-0.325442 1.014971 0.026800 128 128 128
-0.533076 -1.675107 0.346509 128 128 128
-0.258566 0.461197 0.239934 128 128 128
0.065863 0.879095 0.382503 128 128 128
-0.075704 0.884372 0.310740 128 128 128
-0.477951 -1.752460 0.441491 128 128 128
-0.305220 0.283295 0.286626 128 128 128
-0.470376 -0.178210 -0.429829 128 128 128
-0.429439 0.360640 -0.005804 128 128 128
-0.002961 -1.959757 0.284174 128 128 128
0.267947 0.822737 0.007595 128 128 128
-0.576463 -0.437742 -0.283622 128 128 128
-0.274012 -1.019577 -0.611978 128 128 128
0.591110 -0.270378 0.211645 128 128 128
-0.640700 -1.635092 -0.171895 128 128 128
0.341848 -1.622184 0.549374 128 128 128
0.382916 1.021568 -0.103473 128 128 128
0.049377 0.839170 -0.235753 128 128 128
-0.332815 0.346778 -0.369586 128 128 128
0.252884 -0.600981 0.590853 128 128 128
0.462509 0.047385 -0.408926 128 128 128
-0.202896 0.990957 0.022596 128 128 128
0.203459 -1.645659 0.607895 128 128 128
0.309698 -1.088627 0.561743 128 128 128
0.094382 -1.953467 -0.332701 128 128 128
-0.555478 -0.291962 0.342958 128 128 128
-0.130272 0.596136 -0.394299 128 128 128
0.072568 0.429678 0.367128 128 128 128
-0.468259 -1.953594 -0.162505 128 128 128
0.434629 -0.042442 -0.477049 128 128 128
0.504469 -0.067865 -0.425476 128 128 128
-0.185749 0.554855 0.402225 128 128 128
-0.604135 -0.523895 0.215311 128 128 128
-0.034778 0.820522 0.328068 128 128 128
-0.165678 0.260597 0.280297 128 128 128
-0.583465 0.175741 -0.280722 128 128 128
-0.171792 0.661188 0.372602 128 128 128
-0.647394 -1.287687 -0.004127 128 128 128
0.616360 -0.391037 -0.207666 128 128 128
0.217929 -1.531594 0.599094 128 128 128
-0.206380 0.859775 0.185823 128 128 128
-0.633545 -1.355900 -0.018661 128 128 128
-0.393149 -1.486002 -0.538275 128 128 128
0.213150 -1.936874 0.381036 128 128 128
-0.053606 1.049908 -0.426956 128 128 128
0.617345 -1.834908 -0.269647 128 128 128
0.524285 -0.846784 0.372856 128 128 128
0.214906 -0.136993 -0.621467 128 128 128
0.415049 -1.925439 -0.063902 128 128 128
-0.357822 0.453313 -0.002804 128 128 128
-0.366984 0.321821 -0.417343 128 128 128
-0.313662 0.466706 0.115553 128 128 128
0.560072 -1.403486 -0.401954 128 128 128
0.131948 -0.954334 0.617981 128 128 128
0.150708 0.159675 -0.630889 128 128 128
-0.591244 -1.842337 0.114401 128 128 128
0.230000 -1.338003 0.594953 128 128 128
-0.279040 0.806999 0.122406 128 128 128
-0.276627 -0.444201 0.578578 128 128 128
0.262323 -0.699963 -0.621566 128 128 128
-0.121198 0.543177 0.194627 128 128 128
-0.597221 0.147512 0.028901 128 128 128
0.633856 -0.131025 -0.006022 128 128 128
0.639263 -1.570216 -0.251927 128 128 128
0.610023 -1.857755 -0.188565 128 128 128
-0.318765 0.971550 -0.281395 128 128 128
-0.623850 0.056327 0.050932 128 128 128
0.376660 -1.435574 -0.582737 128 128 128
0.513417 -1.631627 -0.469035 128 128 128
-0.384261 -1.258444 -0.547174 128 128 128
0.155161 0.797501 -0.356338 128 128 128
0.622429 -1.255936 -0.207321 128 128 128
0.283599 -1.369648 -0.637644 128 128 128
-0.054650 -0.263303 0.632144 128 128 128
0.501679 -0.986524 0.417495 128 128 128
0.256499 0.353268 0.261908 128 128 128
0.043215 0.828417 0.043589 128 128 128
0.094724 0.535151 0.204068 128 128 128
0.666786 -1.391595 -0.097586 128 128 128
-0.064482 1.001931 -0.401481 128 128 128
-0.319018 0.466460 -0.261792 128 128 128
-0.284943 0.399381 0.178943 128 128 128
0.646508 -1.676910 -0.249118 128 128 128
0.641338 -1.052572 -0.124331 128 128 128
0.577719 -0.613420 0.293661 128 128 128
-0.625650 -0.045060 -0.043145 128 128 128
-0.211377 -0.983086 0.588555 128 128 128
0.139457 -0.193265 0.607290 128 128 128
-0.351059 -1.012142 -0.575517 128 128 128
0.469523 -0.303458 -0.481347 128 128 128
-0.567164 -0.430396 -0.292410 128 128 128
0.504082 -0.863406 -0.440489 128 128 128
0.581066 -1.836468 -0.335903 128 128 128
0.303905 -0.262482 -0.600647 128 128 128
0.031941 -1.941558 0.107392 128 128 128
0.290491 0.536442 -0.233574 128 128 128
0.331107 -0.229385 0.546481 128 128 128
-0.056567 -1.750460 -0.680515 128 128 128
0.112821 0.980774 0.240151 128 128 128
0.194834 -1.958502 0.312344 128 128 128
-0.339640 -1.952749 -0.313624 128 128 128
-0.066505 -0.920262 -0.676753 128 128 128
0.002367 1.019406 0.119329 128 128 128
-0.200308 -1.931633 -0.575945 128 128 128
-0.203324 -1.033621 0.592482 128 128 128
0.518876 -1.469826 0.382105 128 128 128
-0.200502 0.021440 -0.643065 128 128 128
-0.073807 0.976658 0.341869 128 128 128
0.355432 0.400003 -0.243696 128 128 128
-0.054136 0.396810 0.325769 128 128 128
0.155463 0.677299 -0.327095 128 128 128
0.240806 -0.435178 -0.633876 128 128 128
0.674446 -1.602747 -0.123911 128 128 128
0.589127 0.058304 -0.068417 128 128 128
0.562053 0.063980 0.197579 128 128 128
0.435733 -1.188447 -0.534006 128 128 128
-0.511379 0.095551 -0.398034 128 128 128
0.465956 -1.538418 0.453275 128 128 128
-0.025726 -0.080562 0.633876 128 128 128
-0.653916 -1.588750 -0.023128 128 128 128
-0.036398 -0.227216 -0.685100 128 128 128
-0.646004 0.081345 -0.082154 128 128 128
0.180956 0.109822 -0.631630 128 128 128
0.130757 0.659283 0.358704 128 128 128
-0.485535 -0.681887 0.402484 128 128 128
0.504292 -0.416171 -0.432647 128 128 128
-0.314019 -1.198652 -0.575390 128 128 128
-0.633968 -1.859982 -0.259806 128 128 128
-0.415407 0.194943 0.306020 128 128 128
0.216934 -0.964051 -0.653962 128 128 128
-0.607609 -1.627170 -0.265856 128 128 128
0.255731 0.600706 0.285287 128 128 128
0.532465 -0.974053 -0.401045 128 128 128
0.360394 0.895815 0.058036 128 128 128
0.334676 -0.884570 0.529058 128 128 128
0.569253 -1.912740 -0.142829 128 128 128
-0.451371 0.337647 -0.373292 128 128 128
-0.349504 -1.923690 0.391514 128 128 128
0.036369 -1.959423 -0.506651 128 128 128
-0.213324 0.435993 -0.353217 128 128 128
0.234434 0.164967 0.388213 128 128 128
-0.105092 0.874471 0.097094 128 128 128
-0.064979 -0.059438 -0.660829 128 128 128
0.538573 -1.584539 0.354402 128 128 128
-0.515225 -1.853680 -0.447427 128 128 128
0.519280 0.223487 0.143020 128 128 128
-0.034939 -0.470899 -0.681152 128 128 128
0.436179 -1.169827 -0.529873 128 128 128
0.051854 0.867715 -0.374085 128 128 128
0.660312 -1.205970 -0.054837 128 128 128
-0.189158 0.656602 -0.157215 128 128 128
-0.525892 0.110785 0.302349 128 128 128
0.182026 0.263832 -0.570395 128 128 128
0.101613 0.325569 -0.566181 128 128 128
-0.217486 0.983625 -0.316461 128 128 128
0.356577 -0.836386 0.537983 128 128 128
-0.629950 -1.570049 0.119912 128 128 128
0.581059 -0.925717 0.274159 128 128 128
-0.061183 -0.271034 -0.680674 128 128 128
-0.149597 0.932602 -0.396770 128 128 128
-0.351853 0.334069 -0.468281 128 128 128
-0.009591 0.845396 -0.330548 128 128 128
-0.366395 0.943001 -0.022451 128 128 128
-0.154468 0.930366 -0.361233 128 128 128
-0.184340 -1.924040 0.556077 128 128 128
-0.076603 -0.511223 -0.674859 128 128 128
0.629564 -1.145334 -0.183897 128 128 128
-0.241177 -1.468474 -0.634573 128 128 128
-0.485323 -0.513261 -0.403863 128 128 128
-0.536712 -0.378743 0.347402 128 128 128
0.313615 0.058873 -0.525491 128 128 128
-0.343782 -1.447463 -0.574573 128 128 128
0.306504 -1.765655 0.590804 128 128 128
0.185928 0.760623 -0.100067 128 128 128
-0.523020 -0.175079 0.373249 128 128 128
-0.123585 -0.101052 -0.649171 128 128 128
-0.189774 -1.126935 -0.639471 128 128 128
-0.426065 -0.721780 0.470657 128 128 128
0.284702 1.006722 -0.200378 128 128 128
-0.280469 -1.942365 0.315141 128 128 128
-0.390315 -1.875852 -0.518231 128 128 128
0.249524 0.740572 -0.205816 128 128 128
-0.285846 -0.769455 -0.598561 128 128 128
-0.315010 0.909061 -0.290030 128 128 128
-0.202285 0.573501 0.149927 128 128 128
0.363503 1.013927 0.007512 128 128 128
-0.011704 -0.847287 -0.677892 128 128 128
-0.556363 0.004652 0.289991 128 128 128
-0.089803 0.770154 0.072594 128 128 128
0.564262 -1.757592 0.343341 128 128 128
0.025786 0.198172 -0.643386 128 128 128
0.374114 0.111867 0.382008 128 128 128
0.659319 -1.355113 -0.116697 128 128 128
-0.235489 0.094533 0.523141 128 128 128
-0.521063 -0.195195 -0.367307 128 128 128
0.636881 -0.568416 -0.141445 128 128 128
-0.121410 0.714081 -0.178777 128 128 128
-0.192954 -1.280242 0.598656 128 128 128
0.402472 -0.033112 0.492326 128 128 128
0.637355 -0.151319 0.078476 128 128 128
0.535928 -0.046912 0.360479 128 128 128
0.294151 0.746372 -0.228676 128 128 128
0.244680 0.145805 0.430061 128 128 128
0.465912 -0.410072 0.419133 128 128 128
0.523862 -1.370118 -0.455862 128 128 128
0.250817 0.983895 0.270114 128 128 128
0.114619 0.224083 0.388961 128 128 128
0.132115 0.951490 -0.370904 128 128 128
0.317169 0.988238 -0.208306 128 128 128
0.421160 -1.349980 0.476276 128 128 128
0.457549 0.277548 0.184533 128 128 128
-0.109535 -1.811167 0.638433 128 128 128
0.404323 -1.941890 -0.004809 128 128 128
-0.591775 0.142386 -0.251674 128 128 128
-0.445203 -1.215121 -0.496817 128 128 128
-0.015069 0.805912 0.374829 128 128 128
-0.600733 -1.819227 -0.040592 128 128 128
-0.532723 -1.031913 0.313679 128 128 128
0.607289 -0.623578 0.219157 128 128 128
0.540560 0.149735 0.170417 128 128 128
-0.647218 -0.010395 0.068100 128 128 128
-0.205449 -1.680793 0.600686 128 128 128
-0.453099 -0.028136 -0.450528 128 128 128
0.246227 1.014064 -0.242495 128 128 128
-0.571265 -0.324138 0.285780 128 128 128
0.324971 0.188474 0.351401 128 128 128
0.657391 -1.422748 0.050653 128 128 128
-0.502121 -1.255311 0.360492 128 128 128
-0.491919 -0.845646 0.350299 128 128 128
0.485617 -0.256384 0.423792 128 128 128
-0.385072 -1.658422 0.498933 128 128 128
0.266258 0.519215 -0.143488 128 128 128
-0.447451 -1.267160 0.419714 128 128 128
-0.482743 0.160110 0.264839 128 128 128
-0.518589 0.131929 -0.365535 128 128 128
0.203688 0.452539 0.225284 128 128 128
0.516388 0.255723 0.051457 128 128 128
0.472113 -0.935544 -0.481965 128 128 128
0.335024 -0.651541 -0.587782 128 128 128
-0.602086 -1.670716 0.144973 128 128 128
-0.099403 0.262384 -0.623183 128 128 128
-0.416432 -0.580571 0.483706 128 128 128
0.658850 -1.210480 0.000862 128 128 128
0.074609 0.449171 0.205578 128 128 128
0.054098 0.576117 -0.325147 128 128 128
-0.655871 -1.755493 -0.209716 128 128 128
-0.099569 0.615641 0.271876 128 128 128
-0.335236 -0.971405 0.526234 128 128 128
-0.574315 -0.048834 -0.298779 128 128 128
0.603269 -0.528863 0.168513 128 128 128
-0.232260 0.854148 -0.137127 128 128 128
0.562845 -1.384555 -0.386861 128 128 128
-0.485701 -0.974645 -0.453760 128 128 128
-0.484074 -0.422887 0.432513 128 128 128
-0.082009 -1.018698 -0.662445 128 128 128
0.624408 -0.126651 0.047037 128 128 128
-0.040185 0.157321 0.544433 128 128 128
-0.332117 -1.243792 0.530355 128 128 128
-0.085009 -1.941960 0.342397 128 128 128
0.594969 -1.846893 0.248261 128 128 128
0.622975 -0.278350 0.133247 128 128 128
-0.615450 -0.406818 -0.142426 128 128 128
0.060747 0.858662 -0.132007 128 128 128
-0.601124 -1.902992 0.139330 128 128 128
0.389433 -1.885489 0.527430 128 128 128
-0.340688 -0.412104 -0.544263 128 128 128
-0.450266 0.186158 -0.451611 128 128 128
-0.332580 0.932215 -0.064315 128 128 128
0.124947 -0.448014 -0.675987 128 128 128
0.173890 -0.835602 -0.659535 128 128 128
-0.109809 -1.202166 0.624551 128 128 128
0.525746 0.248457 -0.024799 128 128 128
0.006390 0.931955 0.400209 128 128 128
0.256756 0.753503 0.097767 128 128 128
0.034156 -0.502900 -0.668237 128 128 128
-0.363711 -1.289537 0.519164 128 128 128
0.228659 -1.134514 0.590415 128 128 128
0.316614 -1.857741 0.564344 128 128 128
0.673130 -1.694801 0.021521 128 128 128
-0.475541 0.250909 -0.300423 128 128 128
0.603298 -0.062739 0.167903 128 128 128
0.440448 -0.154144 -0.486818 128 128 128
-0.283425 0.917096 -0.165937 128 128 128
-0.260378 -0.524392 -0.616761 128 128 128
0.660602 -1.840517 -0.233544 128 128 128
0.653655 -0.798694 -0.007363 128 128 128
-0.257183 0.924200 0.183850 128 128 128
-0.604094 -1.227066 0.162535 128 128 128
0.109343 0.740765 0.267078 128 128 128
-0.125408 0.700203 -0.217695 128 128 128
-0.155480 0.994876 -0.278545 128 128 128
-0.598750 0.148858 0.083766 128 128 128
-0.049360 -1.950413 -0.190601 128 128 128
-0.620906 -0.832521 0.101982 128 128 128
-0.552119 -1.167162 -0.375249 128 128 128
0.413129 -1.536705 -0.565470 128 128 128
0.630585 -1.426789 0.151157 128 128 128
0.624006 -0.123520 0.015154 128 128 128
0.138737 -1.211548 -0.656354 128 128 128
0.176474 0.933561 0.307682 128 128 128
-0.251467 0.326462 0.274724 128 128 128
-0.003461 -1.112052 -0.679058 128 128 128
-0.120806 -1.943190 -0.578347 128 128 128
-0.009784 0.634715 0.227869 128 128 128
-0.181057 1.036279 -0.310594 128 128 128
0.613646 -1.146434 0.216949 128 128 128
0.132420 0.586606 -0.318384 128 128 128
-0.217512 -1.171969 -0.631537 128 128 128
0.066595 0.066997 -0.637875 128 128 128
0.554733 -1.335960 0.321969 128 128 128
-0.135039 -1.395857 0.621184 128 128 128
-0.426822 -1.557301 -0.517915 128 128 128
0.060465 -0.067583 0.625065 128 128 128
-0.658941 -1.792760 -0.047378 128 128 128
-0.420979 -1.725835 -0.523720 128 128 128
0.602709 -1.671662 0.275152 128 128 128
-0.330192 -0.940265 -0.574392 128 128 128
0.291734 0.570402 -0.216932 128 128 128
0.480060 -0.416473 0.403914 128 128 128
-0.517545 -1.906926 -0.372349 128 128 128
0.201386 0.486412 0.138973 128 128 128
0.223102 -0.609958 -0.636497 128 128 128
-0.351783 0.488427 -0.132721 128 128 128
-0.171918 -1.930893 0.581712 128 128 128
0.454190 -1.655757 0.475625 128 128 128
-0.174224 -0.422709 -0.649726 128 128 128
0.254570 0.773923 0.018610 128 128 128
0.256865 0.766279 0.070789 128 128 128
-0.349211 1.008656 0.032349 128 128 128
-0.283378 -0.694773 -0.586584 128 128 128
0.595146 -1.721715 -0.348715 128 128 128
-0.047066 -0.534279 0.630202 128 128 128
0.200442 0.893475 -0.315705 128 128 128
-0.068347 0.954453 -0.385449 128 128 128
0.629286 -1.236800 -0.197895 128 128 128
-0.534166 -0.917407 -0.383902 128 128 128
0.141055 0.838713 -0.358498 128 128 128
0.024728 -0.948147 -0.677254 128 128 128
-0.361692 -1.374582 0.529269 128 128 128
0.134178 0.842226 0.063395 128 128 128
0.379927 0.400135 0.004928 128 128 128
-0.403630 0.376586 -0.310205 128 128 128
0.256789 -0.668082 -0.629143 128 128 128
-0.281910 -1.944979 0.233365 128 128 128
0.247048 0.733635 0.290798 128 128 128
-0.164250 0.981337 0.162968 128 128 128
0.230919 -0.080167 0.592511 128 128 128
0.599912 -0.381066 0.208644 128 128 128
0.247468 -0.480146 -0.635794 128 128 128
-0.658569 0.005222 -0.030517 128 128 128
0.359317 -1.376227 0.531876 128 128 128
0.335550 0.977627 -0.222363 128 128 128
-0.026085 0.344700 -0.569012 128 128 128
0.058235 0.441359 0.210274 128 128 128
-0.279960 0.834004 -0.170160 128 128 128
0.361570 -1.304367 -0.588112 128 128 128
0.004953 -0.034709 -0.656627 128 128 128
0.358590 -1.078954 0.554174 128 128 128
0.292508 0.232801 0.376731 128 128 128
0.462437 -0.795588 0.472977 128 128 128
-0.348756 0.098737 -0.565001 128 128 128
-0.349235 -1.100134 -0.560029 128 128 128
0.214758 0.383535 -0.444676 128 128 128
-0.508861 0.109488 0.283260 128 128 128
-0.551449 -0.396994 0.327186 128 128 128
0.026052 1.000592 -0.167462 128 128 128
0.275171 0.355381 -0.460652 128 128 128
-0.527602 -0.156527 -0.344270 128 128 128
0.182816 0.888752 0.153918 128 128 128
-0.611940 0.040270 0.124349 128 128 128
0.669918 -1.695692 -0.002324 128 128 128
-0.325963 0.883783 -0.149653 128 128 128
0.201372 -1.537459 0.600427 128 128 128
-0.275511 0.749615 -0.123383 128 128 128
0.027869 0.152334 0.550158 128 128 128
-0.193890 -1.092897 0.599202 128 128 128
-0.606306 -0.180323 -0.236241 128 128 128
0.588273 -1.359478 0.284525 128 128 128
0.143163 -1.928043 -0.161771 128 128 128
0.138312 0.674547 0.215625 128 128 128
-0.153939 0.947013 0.144015 128 128 128
0.440538 -0.846420 -0.517203 128 128 128
0.495096 -0.855066 -0.438939 128 128 128
-0.374274 1.026062 -0.124327 128 128 128
-0.316144 0.982009 -0.121609 128 128 128
-0.271790 -1.133880 0.559488 128 128 128
0.236862 0.027778 0.582366 128 128 128
0.233084 0.980383 0.270570 128 128 128
-0.170903 0.048804 -0.634179 128 128 128
-0.310458 -1.407200 0.549821 128 128 128
-0.295987 0.918320 -0.209616 128 128 128
-0.471664 -0.725592 -0.439053 128 128 128
-0.453146 -1.542811 0.452622 128 128 128
-0.481145 -1.908558 0.315965 128 128 128
-0.155568 0.119369 0.572204 128 128 128
0.158560 0.707647 0.203143 128 128 128
-0.232554 -0.911372 -0.635603 128 128 128
0.438815 0.325053 0.212568 128 128 128
0.106501 0.789515 -0.399823 128 128 128
0.079941 0.970742 0.026815 128 128 128
0.285762 0.733058 -0.133928 128 128 128
-0.255086 -1.932552 0.399078 128 128 128
-0.319533 -1.539534 -0.592405 128 128 128
0.616336 -1.845965 -0.221932 128 128 128
0.353116 -1.225512 -0.601328 128 128 128
0.491925 -1.091622 0.439789 128 128 128
0.225035 0.994830 -0.224389 128 128 128
-0.046990 -0.526571 -0.669403 128 128 128
0.618285 -1.311728 -0.254319 128 128 128
0.471836 0.120635 -0.318421 128 128 128
0.241207 0.696021 -0.152504 128 128 128
0.503211 -1.095105 0.414486 128 128 128
-0.077197 -1.498821 0.630634 128 128 128
0.219405 0.420759 0.197155 128 128 128
0.641046 -0.464084 -0.089147 128 128 128
0.432979 -0.113557 -0.493014 128 128 128
-0.061080 0.239728 -0.641627 128 128 128
-0.621201 0.026180 -0.184361 128 128 128
0.588214 -1.831338 0.127972 128 128 128
0.029631 -1.856527 0.631592 128 128 128
0.364744 0.482117 0.072975 128 128 128
-0.221992 -1.230244 -0.643665 128 128 128
0.030953 -0.504780 0.630446 128 128 128
-0.122948 -1.971274 0.277661 128 128 128
0.307235 0.449437 -0.265586 128 128 128
-0.050635 0.940383 0.385738 128 128 128
-0.637964 -0.917603 0.034910 128 128 128
-0.276074 0.643453 -0.118701 128 128 128
-0.393037 -0.089022 0.498492 128 128 128
-0.104789 0.309654 -0.550931 128 128 128
-0.189489 0.997698 0.251549 128 128 128
-0.505747 0.269253 0.090953 128 128 128
-0.277346 0.772880 -0.148932 128 128 128
-0.203623 -1.365388 -0.645398 128 128 128
-0.480767 -1.510395 -0.448971 128 128 128
0.266059 0.985222 -0.290529 128 128 128
0.317355 0.501183 -0.090634 128 128 128
0.087367 -0.844907 -0.661807 128 128 128
0.216437 0.842566 0.098312 128 128 128
-0.623906 -1.810647 -0.257074 128 128 128
-0.486181 -0.499604 0.429831 128 128 128
-0.510620 -1.940834 -0.129442 128 128 128
-0.490427 -1.881901 0.412203 128 128 128
0.066772 -0.689957 0.628454 128 128 128
0.351419 0.138694 -0.410318 128 128 128
-0.083655 0.541299 0.244309 128 128 128
-0.430050 -1.136997 -0.523088 128 128 128
0.358892 0.525557 -0.041460 128 128 128
0.218710 -1.949089 0.404993 128 128 128
0.459088 -1.393507 0.455072 128 128 128
-0.190710 0.017861 0.574555 128 128 128
-0.579323 0.052205 0.225089 128 128 128
0.371684 -0.346340 -0.553363 128 128 128
-0.573491 -1.518819 -0.318735 128 128 128
0.544276 -0.139354 0.344906 128 128 128
0.666674 -1.285359 -0.087902 128 128 128
-0.197016 0.899321 0.264356 128 128 128
-0.613147 -0.773333 0.138027 128 128 128
-0.605648 -0.775593 0.156973 128 128 128
0.601556 -0.349429 0.170629 128 128 128
-0.438612 0.138245 -0.465212 128 128 128
0.172654 -1.194321 0.608991 128 128 128
0.627888 -1.811137 0.094866 128 128 128
0.537158 -0.951893 0.369967 128 128 128
0.044885 -0.139100 -0.662048 128 128 128
-0.634981 -0.490468 0.065734 128 128 128
-0.555361 -1.917120 0.255362 128 128 128
-0.286902 -1.940594 0.485712 128 128 128
0.215468 0.747196 0.121170 128 128 128
0.679899 -1.704774 -0.066207 128 128 128
0.512635 -1.929810 -0.238756 128 128 128
-0.110427 0.825153 -0.232326 128 128 128
-0.282166 0.534866 0.256356 128 128 128
0.192453 -1.106693 -0.668344 128 128 128
-0.174173 -0.181056 0.605251 128 128 128
0.516712 -1.502802 -0.477666 128 128 128
-0.500054 0.285011 -0.022177 128 128 128
-0.142996 0.823900 0.255310 128 128 128
-0.283314 -0.791115 0.557114 128 128 128
0.362764 0.985920 -0.095888 128 128 128
0.265404 -0.624999 -0.633703 128 128 128
0.556370 -0.472900 0.285408 128 128 128
-0.619004 -0.780528 0.056599 128 128 128
0.263099 0.508095 0.205214 128 128 128
0.103367 0.576712 -0.284996 128 128 128
0.346436 1.021960 -0.154577 128 128 128
0.479519 -1.701117 0.443089 128 128 128
0.566402 -0.425848 -0.353302 128 128 128
-0.386351 -0.517284 -0.530671 128 128 128
0.323727 0.827979 -0.228614 128 128 128
0.676186 -1.693407 -0.107623 128 128 128
-0.401829 0.377087 -0.231420 128 128 128
-0.347305 1.018229 0.082761 128 128 128
0.623493 -1.112122 -0.182902 128 128 128
0.394772 -1.040272 0.504353 128 128 128
0.379286 -1.936402 -0.358250 128 128 128
-0.529721 -1.736998 0.339190 128 128 128
-0.061120 -0.734623 0.632126 128 128 128
0.293119 0.135657 0.451407 128 128 128
0.225182 -0.912611 -0.648260 128 128 128
-0.287381 -0.766392 -0.603708 128 128 128
0.176099 -1.519107 0.613177 128 128 128
-0.444295 -0.051360 0.425573 128 128 128
0.092870 -1.668739 -0.663741 128 128 128
0.104478 0.366239 0.413542 128 128 128
-0.307841 0.529863 0.100393 128 128 128
-0.492280 -0.906822 0.375996 128 128 128
-0.151795 -1.886415 -0.600371 128 128 128
0.507135 -1.054382 0.400187 128 128 128
0.391851 -1.917422 -0.537762 128 128 128
0.323673 0.633895 0.021401 128 128 128
0.638990 -0.825496 0.105291 128 128 128
-0.556740 -0.518365 0.308396 128 128 128
-0.274321 -1.913756 -0.587322 128 128 128
-0.650257 -1.551187 -0.061562 128 128 128
0.062778 0.018060 -0.647633 128 128 128
0.300305 -0.671853 -0.604104 128 128 128
0.185204 0.785328 -0.119666 128 128 128
0.134590 -1.938393 0.491704 128 128 128
-0.496419 -1.249246 0.356172 128 128 128
0.323594 0.267163 -0.328801 128 128 128
0.196445 -0.740216 -0.641008 128 128 128
-0.424953 -1.938613 -0.378822 128 128 128
-0.235330 0.761657 -0.033422 128 128 128
-0.622050 -1.570773 -0.213368 128 128 128
0.205344 -0.051822 -0.617921 128 128 128
-0.191329 0.822019 -0.089687 128 128 128
-0.003135 -1.809087 -0.661821 128 128 128
-0.524227 -1.938975 -0.009997 128 128 128
0.272236 -1.942652 0.051805 128 128 128
0.431032 -0.417489 -0.519707 128 128 128
-0.095308 0.799018 -0.088529 128 128 128
-0.431812 -1.787163 -0.528438 128 128 128
0.657353 -1.493263 -0.177495 128 128 128
0.285130 0.824300 0.116282 128 128 128
-0.092430 -0.236062 -0.663187 128 128 128
0.640255 -1.578420 -0.281739 128 128 128
0.025406 -0.058190 -0.662354 128 128 128
0.126748 0.991688 0.232586 128 128 128
-0.283506 -1.058904 0.555602 128 128 128
0.496048 -1.409769 -0.481396 128 128 128
0.651804 -1.260480 0.110957 128 128 128
0.373615 -1.930693 0.000583 128 128 128
-0.184784 1.009935 0.327934 128 128 128
-0.413288 -1.775547 -0.533648 128 128 128
0.283031 0.777962 0.054116 128 128 128
0.292072 0.928540 0.145062 128 128 128
0.115993 0.172449 0.429644 128 128 128
0.036127 -0.286744 0.617995 128 128 128
-0.247697 0.976112 0.229244 128 128 128
0.170093 -0.952679 -0.667088 128 128 128
-0.484342 0.228957 0.216261 128 128 128
0.491950 -0.934353 0.413203 128 128 128
0.543727 -0.265450 0.303312 128 128 128
-0.113333 -1.748139 -0.663482 128 128 128
-0.495646 -1.863429 0.381162 128 128 128
0.384157 -0.548712 0.524995 128 128 128
-0.614961 -0.289541 0.168949 128 128 128
0.497124 -0.631984 -0.435999 128 128 128
0.557444 -1.158697 -0.369673 128 128 128
-0.173129 -0.778275 -0.642573 128 128 128
0.036714 -1.953050 -0.610621 128 128 128
-0.621698 0.100876 0.121184 128 128 128
0.099155 0.720699 -0.232894 128 128 128
-0.580517 -0.149365 -0.291944 128 128 128
-0.097281 -1.954326 0.231730 128 128 128
0.428839 -1.229361 0.484394 128 128 128
-0.334451 0.874445 -0.172475 128 128 128
0.558911 0.136192 -0.011415 128 128 128
-0.280399 -1.932243 0.525365 128 128 128
0.290635 -0.314290 0.564318 128 128 128
-0.056521 0.782406 0.408870 128 128 128
0.627975 -0.926447 -0.191036 128 128 128
-0.549290 -0.419486 -0.322655 128 128 128
-0.553696 -1.024535 0.262880 128 128 128
0.191675 -1.953352 0.167104 128 128 128
0.669824 -1.734362 -0.166538 128 128 128
-0.099338 0.715877 -0.086870 128 128 128
-0.212007 -1.939565 0.331600 128 128 128
-0.531773 -1.673643 0.352458 128 128 128
0.347911 1.034213 -0.028961 128 128 128
-0.352636 0.220806 -0.543740 128 128 128
0.622775 -1.613714 0.180061 128 128 128
0.319083 0.129559 0.430768 128 128 128
0.170845 0.944084 0.145542 128 128 128
-0.056118 -1.702735 -0.679937 128 128 128
0.467317 -0.801278 0.437638 128 128 128
0.570173 -1.892656 -0.164392 128 128 128
-0.514300 -0.225293 -0.409376 128 128 128
-0.165431 -0.109994 0.610646 128 128 128
0.454529 -1.334403 -0.509370 128 128 128
-0.424288 -0.045422 -0.498324 128 128 128
0.025120 0.576272 0.297929 128 128 128
-0.006705 0.365843 -0.532317 128 128 128
0.170782 0.547818 -0.290672 128 128 128
-0.502046 0.069307 0.268173 128 128 128
-0.602680 -0.164063 -0.181047 128 128 128
0.177092 -1.946091 -0.163246 128 128 128
0.539363 -0.148794 0.340797 128 128 128
0.540828 -1.399475 -0.417324 128 128 128
-0.592307 -1.507045 -0.292573 128 128 128
0.593399 0.060305 -0.139705 128 128 128
-0.639903 -0.267312 0.087957 128 128 128
-0.586818 -0.543200 -0.266516 128 128 128
-0.326793 -0.655425 0.538289 128 128 128
0.182849 0.862161 -0.042177 128 128 128
0.048144 0.280915 -0.592179 128 128 128
0.449070 0.107602 -0.362454 128 128 128
-0.013504 0.824236 -0.227565 128 128 128
0.211345 -0.490300 -0.637266 128 128 128
0.192394 -1.680106 -0.669406 128 128 128
-0.577682 -1.927794 -0.325886 128 128 128
0.049697 0.443351 0.389540 128 128 128
0.347592 0.789665 0.061455 128 128 128
-0.063882 -0.778233 -0.676669 128 128 128
-0.640840 -1.406532 -0.070812 128 128 128
0.198118 -0.192337 -0.625216 128 128 128
0.622318 -0.419665 0.101312 128 128 128
0.027975 -1.397734 0.631449 128 128 128
-0.529391 0.283686 0.021629 128 128 128
-0.308564 0.434037 0.153012 128 128 128
0.567693 -1.363352 0.316278 128 128 128
-0.340228 0.869583 -0.039914 128 128 128
0.078725 0.715293 -0.195382 128 128 128
-0.593577 -0.852591 -0.280959 128 128 128
-0.150939 -0.758858 -0.654119 128 128 128
0.251752 -0.052830 -0.599504 128 128 128
-0.347872 0.068345 0.456635 128 128 128
0.238038 0.456475 0.074675 128 128 128
0.665117 -1.421939 -0.100588 128 128 128
0.634536 -0.494132 -0.107396 128 128 128
0.502771 -0.315467 -0.446376 128 128 128
0.496613 -0.008689 0.406737 128 128 128
-0.397115 -1.296260 0.484569 128 128 128
0.325245 -1.030454 -0.630635 128 128 128
0.064885 -1.964230 -0.515362 128 128 128
0.505121 -0.491160 0.383755 128 128 128
0.580781 -0.385969 0.235837 128 128 128
-0.441055 -0.977810 -0.506144 128 128 128
0.115785 0.386210 0.301641 128 128 128
-0.044414 -1.322296 0.640434 128 128 128
0.172693 -0.699795 0.614930 128 128 128
0.611789 -0.972114 0.227699 128 128 128
-0.129400 -1.899682 0.577416 128 128 128
-0.162966 -1.937511 0.558782 128 128 128
0.296350 -1.285008 -0.629613 128 128 128
-0.189048 0.374628 -0.488546 128 128 128
-0.078563 -0.344646 -0.674645 128 128 128
-0.088342 0.251668 -0.621279 128 128 128
0.632775 -0.167452 0.053312 128 128 128
0.380802 -1.935508 -0.512026 128 128 128
0.490059 -1.581942 0.426929 128 128 128
-0.524714 -1.780750 0.383154 128 128 128
0.173162 -0.193035 -0.643936 128 128 128
-0.440144 -0.074851 0.446386 128 128 128
-0.064714 0.913621 0.180689 128 128 128
0.333942 0.580232 -0.138848 128 128 128
0.000274 -1.769257 -0.684458 128 128 128
0.002761 -0.551531 0.631647 128 128 128
-0.167956 -1.949335 0.328294 128 128 128
-0.584281 -1.872880 0.203764 128 128 128
-0.574763 0.181342 0.139015 128 128 128
-0.633267 -1.421491 -0.170440 128 128 128
-0.561176 -0.663682 -0.319519 128 128 128
0.473051 -1.661360 -0.510730 128 128 128
-0.285409 0.520352 0.050743 128 128 128
0.174978 -1.378268 -0.667704 128 128 128
-0.596721 -1.541345 0.239637 128 128 128
-0.448798 -1.231094 0.424483 128 128 128
0.557502 -0.795559 -0.340317 128 128 128
0.625041 -1.097020 0.180477 128 128 128
-0.121266 -0.349545 -0.667399 128 128 128
0.376226 0.384935 -0.238039 128 128 128
0.205954 -1.849647 -0.674132 128 128 128
0.070442 -1.813438 0.644969 128 128 128
0.112523 -0.764929 0.623335 128 128 128
0.322772 -1.752906 -0.612911 128 128 128
0.446694 -0.931571 0.462214 128 128 128
-0.187413 0.935317 -0.017174 128 128 128
-0.178108 -1.954623 -0.525154 128 128 128
0.595274 -0.120808 0.222745 128 128 128
-0.476934 -1.822712 -0.466688 128 128 128
0.154628 1.009975 -0.248942 128 128 128
0.328343 -1.971409 -0.419705 128 128 128
-0.256451 0.917198 -0.363844 128 128 128
-0.358215 0.358769 -0.409118 128 128 128
0.628252 -0.132245 -0.157399 128 128 128
-0.396913 0.386156 -0.091575 128 128 128
-0.562497 0.220366 0.029313 128 128 128
-0.616853 -0.807637 0.125450 128 128 128
-0.117730 0.713911 0.285228 128 128 128
-0.516284 -1.873485 0.332462 128 128 128
-0.148626 0.184535 0.540692 128 128 128
-0.583167 -1.666728 -0.338254 128 128 128
-0.403954 -0.741397 -0.524503 128 128 128
-0.579431 -0.612976 -0.280872 128 128 128
0.484748 -0.314827 -0.464045 128 128 128
0.162892 0.894448 -0.349469 128 128 128
0.623993 -0.307193 0.082793 128 128 128
-0.506719 -0.018867 0.367777 128 128 128
-0.589189 -1.888500 -0.186258 128 128 128
-0.220661 -0.445942 -0.610904 128 128 128
0.620248 -0.066556 0.110439 128 128 128
0.329346 -1.226024 0.547503 128 128 128
0.028539 0.978224 0.136767 128 128 128
0.198162 -1.229726 -0.664206 128 128 128
0.621820 -0.800399 0.133580 128 128 128
0.032008 -1.962924 0.338639 128 128 128
-0.356788 -1.316846 -0.562621 128 128 128
0.619468 -0.770353 -0.217111 128 128 128
0.545838 -1.684715 -0.445055 128 128 128
0.501560 0.088419 0.283354 128 128 128
-0.163115 -1.827896 -0.650013 128 128 128
0.635859 -0.585653 -0.149450 128 128 128
-0.411687 -1.161880 -0.526127 128 128 128
0.430470 -0.083587 0.477533 128 128 128
0.225652 0.715061 -0.318170 128 128 128
-0.517686 -0.524322 -0.381328 128 128 128
-0.504646 -0.989424 0.346712 128 128 128
0.023835 0.757129 0.117534 128 128 128
-0.361768 0.881919 -0.029049 128 128 128
0.252179 0.447312 0.051621 128 128 128
0.559426 -1.280089 0.329650 128 128 128
0.378304 -1.936975 0.038207 128 128 128
-0.639058 -1.830560 -0.049521 128 128 128
0.413932 -0.533939 -0.528105 128 128 128
-0.158711 0.377869 -0.488305 128 128 128
-0.308961 -1.064492 -0.592862 128 128 128
0.361218 0.118970 0.461130 128 128 128
-0.531580 -1.089157 -0.385822 128 128 128
0.651866 -1.324340 0.090493 128 128 128
0.054667 0.549872 -0.401877 128 128 128
0.567758 -1.673984 -0.433285 128 128 128
0.131264 0.828508 -0.160891 128 128 128
0.144839 0.652218 0.197241 128 128 128
0.333997 -0.436712 0.543282 128 128 128
-0.640078 0.076035 -0.036678 128 128 128
-0.568535 -1.834163 0.219791 128 128 128
-0.649703 -0.859617 -0.094520 128 128 128
0.654267 -1.744933 -0.216475 128 128 128
0.081960 -1.816133 0.632924 128 128 128
0.568311 0.087527 0.008565 128 128 128
0.288975 0.529970 0.105141 128 128 128
-0.203474 1.037550 -0.340333 128 128 128
0.148699 -1.155529 0.615191 128 128 128
0.169915 0.425225 0.204819 128 128 128
0.285691 -1.062773 -0.625583 128 128 128
0.053121 0.823697 0.063594 128 128 128
0.026760 0.990310 -0.055854 128 128 128
0.246869 -0.305586 0.593670 128 128 128
-0.567217 -0.504854 0.299402 128 128 128
-0.454699 0.056626 -0.440422 128 128 128
0.554008 -1.364856 -0.402956 128 128 128
-0.147840 0.516371 0.358568 128 128 128
0.175295 1.014872 0.198052 128 128 128
-0.059646 0.502232 0.353894 128 128 128
0.288528 0.695201 -0.203022 128 128 128
0.354897 0.743179 -0.107309 128 128 128
-0.004476 1.003987 0.023495 128 128 128
-0.103566 0.393865 0.311043 128 128 128
0.561899 -0.142954 0.301440 128 128 128
0.635157 -0.406198 -0.078171 128 128 128
0.326144 0.520664 -0.028518 128 128 128
0.253595 -0.476348 0.586578 128 128 128
0.348726 -0.203442 -0.556358 128 128 128
-0.623936 -0.820495 -0.208248 128 128 128
-0.438198 -0.661397 -0.491361 128 128 128
-0.621113 -0.592103 0.138717 128 128 128
-0.006462 0.273421 -0.629487 128 128 128
0.045067 0.939105 0.390918 128 128 128
0.268943 0.441364 -0.339176 128 128 128
-0.613208 -0.255718 0.125329 128 128 128
0.618507 -0.281665 0.134289 128 128 128
-0.265552 -1.704242 -0.624032 128 128 128
0.516983 0.093277 0.247709 128 128 128
-0.156910 0.806523 -0.428412 128 128 128
0.405343 0.220966 0.286430 128 128 128
0.251392 1.039745 0.265234 128 128 128
0.502950 -1.614519 -0.489855 128 128 128
0.243508 -1.388356 -0.653852 128 128 128
0.101880 0.935561 -0.317861 128 128 128
-0.084318 -1.964180 0.459494 128 128 128
-0.629788 -0.689631 -0.156193 128 128 128
0.631405 -0.216817 -0.140743 128 128 128
0.188452 -1.934923 -0.153358 128 128 128
0.633347 -1.257014 0.166855 128 128 128
-0.140932 0.724173 0.048926 128 128 128
-0.329060 -1.940966 -0.159874 128 128 128
0.521352 -0.088522 0.384109 128 128 128
-0.640202 -0.229211 -0.109670 128 128 128
-0.412767 -0.222161 -0.487097 128 128 128
0.274228 -1.100489 -0.628669 128 128 128
-0.632418 -0.693296 -0.022641 128 128 128
-0.289728 0.952263 0.195922 128 128 128
-0.411836 -1.865869 -0.539629 128 128 128
-0.614025 -0.189035 0.129829 128 128 128
0.354800 -0.335813 0.531941 128 128 128
0.517056 0.164995 0.212691 128 128 128
0.469071 -1.929114 -0.008067 128 128 128
-0.465468 -1.740950 0.452014 128 128 128
0.114356 -1.960550 -0.458316 128 128 128
-0.153050 0.442505 -0.313491 128 128 128
0.154658 0.885232 -0.385516 128 128 128
0.488437 0.132306 -0.239480 128 128 128
-0.493686 -1.583158 -0.445666 128 128 128
-0.254980 -1.151213 0.571604 128 128 128
0.158806 0.299219 0.318676 128 128 128
0.546307 -0.703270 -0.344831 128 128 128
-0.496643 -1.809351 -0.479912 128 128 128
0.000252 -1.942349 -0.023662 128 128 128
-0.639951 -1.679575 -0.189017 128 128 128
0.035480 0.257920 -0.631622 128 128 128
-0.105910 0.468405 -0.388174 128 128 128
0.079162 0.796169 0.304750 128 128 128
0.169341 0.864323 -0.337645 128 128 128
-0.035117 -1.938873 -0.256275 128 128 128
-0.525316 -1.736440 0.352665 128 128 128
-0.373541 -0.428054 -0.537024 128 128 128
-0.158329 0.944951 0.282039 128 128 128
-0.622260 -0.493541 0.122311 128 128 128
0.311943 0.122161 0.400817 128 128 128
0.343983 0.434960 -0.275368 128 128 128
-0.640828 -1.485066 -0.096199 128 128 128
-0.266811 -1.101251 -0.620632 128 128 128
