ply
format ascii 1.0
element vertex 1198
property float x
property float y
property float z
property uchar red
property uchar green
property uchar blue
end_header
-0.115114 0.099595 0.738623 128 128 128
-0.066359 0.306334 0.524512 128 128 128
-0.113139 0.141494 0.497189 128 128 128
0.098472 0.249306 -0.316271 128 128 128
0.014163 0.042190 -0.409711 128 128 128
-0.048780 -0.112712 0.221812 128 128 128
0.003385 0.256590 -0.515004 128 128 128
-0.074143 0.238550 -0.256739 128 128 128
0.311381 0.106215 0.287004 128 128 128
-0.035122 -0.257295 -0.341024 128 128 128
0.371990 0.062870 -0.153554 128 128 128
0.358751 0.230742 0.844177 128 128 128
0.028852 0.293154 0.468487 128 128 128
0.043647 -0.035173 0.333668 128 128 128
0.081694 0.122295 0.695478 128 128 128
0.345354 0.051483 0.395371 128 128 128
-0.148128 0.013865 0.374699 128 128 128
-0.858509 0.050176 0.402689 128 128 128
0.437256 0.096589 0.398107 128 128 128
-0.810119 0.080661 0.265732 128 128 128
-0.007180 0.125702 -0.377660 128 128 128
0.964972 0.058164 0.410785 128 128 128
0.023666 0.297580 0.589683 128 128 128
0.144591 0.064730 0.036651 128 128 128
-0.077525 0.284436 -0.014571 128 128 128
-0.089957 0.199937 -0.459116 128 128 128
-0.184344 0.022332 0.044556 128 128 128
-0.005816 0.254511 0.426418 128 128 128
-0.028699 0.009766 0.805427 128 128 128
-0.002885 0.015172 0.852926 128 128 128
-0.083440 -0.081358 0.175626 128 128 128
-0.122439 -0.023623 0.717666 128 128 128
0.056401 -0.058616 0.133595 128 128 128
-0.241638 0.204582 0.185607 128 128 128
0.914049 0.094655 0.482737 128 128 128
-0.083687 -0.068104 0.452017 128 128 128
0.215938 0.016953 -0.013066 128 128 128
-0.058227 -0.004835 0.149323 128 128 128
0.469129 0.086029 0.477551 128 128 128
0.181440 0.166619 0.280405 128 128 128
0.670095 0.073616 0.452074 128 128 128
-0.045447 0.107446 0.569793 128 128 128
-0.826273 0.071011 0.278836 128 128 128
-0.660160 0.061740 0.212448 128 128 128
-0.386589 -0.008067 -0.016460 128 128 128
0.752728 0.096658 0.397748 128 128 128
-0.134143 0.049531 -0.101667 128 128 128
-0.124688 0.005747 -0.066448 128 128 128
-0.163370 0.154759 -0.311157 128 128 128
0.454402 0.070466 0.181781 128 128 128
-0.072226 0.129684 -0.601849 128 128 128
0.094155 0.250611 0.460779 128 128 128
0.865298 0.108892 0.234577 128 128 128
0.014020 0.427741 0.688815 128 128 128
0.465167 0.114760 0.374350 128 128 128
-0.350825 0.062411 0.153892 128 128 128
-0.149797 0.188236 0.726174 128 128 128
-0.307877 0.170052 0.037301 128 128 128
-0.028064 0.259586 0.574408 128 128 128
0.410670 0.229879 0.881293 128 128 128
0.279900 0.040113 0.219998 128 128 128
0.323705 0.215300 0.870897 128 128 128
-0.140030 0.123580 -0.448790 128 128 128
-0.828998 0.054348 0.419725 128 128 128
-0.498584 0.114001 0.802445 128 128 128
-0.020653 0.733412 0.765832 128 128 128
0.604463 -0.016909 -0.060994 128 128 128
0.479792 0.079788 0.214236 128 128 128
-0.006759 0.025577 -0.268257 128 128 128
0.372371 0.035999 0.270872 128 128 128
-0.507223 0.087196 0.109842 128 128 128
-0.306919 0.081700 0.051637 128 128 128
-0.666363 0.055341 0.511952 128 128 128
-0.067120 0.267844 -0.134091 128 128 128
0.168604 -0.019151 0.579625 128 128 128
0.280887 0.040786 0.126643 128 128 128
-0.896012 0.070347 0.565934 128 128 128
-1.116542 0.067788 0.380320 128 128 128
-0.232549 0.040906 0.333782 128 128 128
0.358940 0.085557 0.286547 128 128 128
-0.251198 0.035432 0.355186 128 128 128
0.170539 0.037102 0.816623 128 128 128
-0.343815 0.158277 0.172213 128 128 128
0.038132 0.278832 -0.061607 128 128 128
-0.019821 0.313803 0.283842 128 128 128
-0.189493 0.131722 -0.040952 128 128 128
0.435440 0.062514 0.045662 128 128 128
-0.563819 0.099516 0.069357 128 128 128
0.107737 -0.062314 0.583766 128 128 128
0.373893 0.061286 0.097413 128 128 128
0.164473 0.143625 0.561578 128 128 128
0.081187 0.117597 -0.490041 128 128 128
0.584775 0.074166 0.475286 128 128 128
-0.215667 0.035480 0.450155 128 128 128
0.131948 0.070443 -0.367992 128 128 128
-1.140896 0.082570 0.373024 128 128 128
-0.055677 -0.012500 0.004699 128 128 128
0.094040 0.014294 -0.336990 128 128 128
-0.147123 0.001185 -0.208142 128 128 128
-0.023651 -0.128935 0.016545 128 128 128
-0.035811 0.266539 -0.196811 128 128 128
0.362125 0.047066 0.351181 128 128 128
-0.135825 0.116259 0.917974 128 128 128
-0.091672 -0.013955 0.099411 128 128 128
-0.189023 0.032845 0.462639 128 128 128
0.030569 0.157447 -0.328118 128 128 128
0.747949 0.073113 0.300262 128 128 128
-0.223453 0.062263 0.125407 128 128 128
-0.542927 0.075732 0.443872 128 128 128
0.101840 0.047040 0.031126 128 128 128
0.166333 0.202250 0.509491 128 128 128
-0.837531 0.087957 0.250080 128 128 128
-0.432317 0.100109 0.654572 128 128 128
0.471867 0.096129 0.224053 128 128 128
0.166098 -0.007710 0.656144 128 128 128
0.789992 0.084007 0.439406 128 128 128
-0.075615 -0.038444 -0.475813 128 128 128
0.636120 0.099954 0.412426 128 128 128
-0.664343 0.032012 0.398838 128 128 128
-0.021416 0.104428 0.859024 128 128 128
0.363701 0.107554 -0.144327 128 128 128
1.151497 0.104293 0.390060 128 128 128
-0.290581 0.017817 0.002251 128 128 128
-0.087221 0.208402 -0.448424 128 128 128
0.375236 -0.091432 -0.026221 128 128 128
-0.012670 0.249404 -0.244065 128 128 128
0.277616 0.048354 0.143324 128 128 128
1.001866 0.105312 0.293440 128 128 128
-0.077234 -0.129325 0.909163 128 128 128
0.035781 0.070243 0.635777 128 128 128
0.028935 0.339783 0.606707 128 128 128
-0.460380 0.073534 0.141381 128 128 128
-0.180670 0.194308 0.462097 128 128 128
0.417797 0.071039 -0.058415 128 128 128
-0.022943 0.138457 0.906252 128 128 128
-0.317024 0.066763 0.012982 128 128 128
0.070743 0.292343 0.250750 128 128 128
0.668437 0.068707 0.434633 128 128 128
0.164464 0.103300 0.666919 128 128 128
0.180008 0.162951 0.417119 128 128 128
0.390987 0.069464 0.066610 128 128 128
-0.106062 0.268063 0.536781 128 128 128
0.085226 0.007412 -0.345826 128 128 128
0.250434 0.138295 0.076461 128 128 128
0.193640 0.044493 -0.094708 128 128 128
-0.542913 0.080443 0.411605 128 128 128
0.181797 -0.044608 0.511412 128 128 128
0.196413 0.151342 0.146876 128 128 128
0.050568 -0.015681 -0.081979 128 128 128
0.470214 0.048415 0.374125 128 128 128
-0.229210 0.055480 0.266638 128 128 128
0.019492 -0.008725 -0.398508 128 128 128
-0.134972 0.057065 -0.147168 128 128 128
0.007796 -0.068587 -0.137851 128 128 128
0.042847 -0.042650 0.041957 128 128 128
0.133072 0.205831 0.472641 128 128 128
-0.143795 0.172406 -0.226575 128 128 128
0.021561 0.335247 0.431340 128 128 128
-0.477011 0.043041 -0.005662 128 128 128
-0.030680 -0.018993 0.023846 128 128 128
0.639662 -0.003215 0.283529 128 128 128
-0.088781 0.198621 -0.500759 128 128 128
-0.052946 0.036508 -0.483166 128 128 128
-0.178194 0.040755 0.475423 128 128 128
0.057470 -0.082917 0.552715 128 128 128
0.163503 0.123055 -0.234954 128 128 128
-0.623101 0.035377 0.363746 128 128 128
-0.027516 0.637592 0.763457 128 128 128
-0.196682 0.026889 0.369902 128 128 128
0.613485 0.077846 0.455065 128 128 128
-0.064491 -0.051354 -0.054454 128 128 128
-0.103589 0.094550 0.257901 128 128 128
0.655379 0.089544 0.154354 128 128 128
-0.240996 0.088006 -0.022170 128 128 128
0.509423 0.059019 0.442419 128 128 128
-0.410681 0.120527 0.269516 128 128 128
-0.082967 0.200389 0.891337 128 128 128
0.040092 -0.007883 -0.381656 128 128 128
0.619242 0.092923 0.027321 128 128 128
0.127214 0.022714 -0.213453 128 128 128
-0.011675 -0.051407 0.401433 128 128 128
0.004126 -0.063453 -0.080110 128 128 128
-0.002661 -0.002546 -0.313609 128 128 128
0.880563 0.088772 0.231622 128 128 128
0.088238 -0.065102 0.824286 128 128 128
-0.686702 0.062858 0.267790 128 128 128
0.812008 0.090318 0.302783 128 128 128
0.441122 0.108151 0.275643 128 128 128
-0.003885 0.391058 0.643510 128 128 128
-0.312285 0.052657 0.043742 128 128 128
0.838298 0.082858 0.472967 128 128 128
-0.013297 0.530042 0.664603 128 128 128
-0.336919 0.037540 0.253821 128 128 128
0.001614 0.485524 0.722395 128 128 128
0.001874 -0.046797 0.763295 128 128 128
-0.034889 0.027878 -0.106077 128 128 128
-0.120170 0.057648 -0.333357 128 128 128
0.198709 0.071173 0.446273 128 128 128
-0.280149 0.161351 0.146568 128 128 128
-0.411557 0.059690 0.545200 128 128 128
-0.229791 0.119660 -0.104860 128 128 128
-0.643512 0.050420 0.148095 128 128 128
0.131502 0.030954 -0.091005 128 128 128
-0.043430 0.190819 0.589189 128 128 128
0.346474 0.045162 0.437005 128 128 128
-0.171947 0.167490 -0.036306 128 128 128
-0.005983 0.285421 0.857618 128 128 128
0.648224 0.087341 0.142746 128 128 128
-0.044535 0.068035 -0.511822 128 128 128
0.734080 0.078794 0.467414 128 128 128
-0.103451 0.217487 0.670655 128 128 128
0.778059 0.099252 0.333022 128 128 128
-0.203729 0.176429 0.134356 128 128 128
-0.136737 -0.004010 0.621988 128 128 128
0.986620 0.082194 0.406373 128 128 128
0.102240 0.089049 0.774644 128 128 128
-0.787524 0.059633 0.144788 128 128 128
0.046975 0.240653 0.795100 128 128 128
-0.586336 0.102973 0.285443 128 128 128
-0.426750 0.095323 0.553123 128 128 128
-0.198328 0.140815 -0.019302 128 128 128
0.051142 0.303020 0.005199 128 128 128
0.080948 0.216819 0.560660 128 128 128
0.097954 0.001220 0.190553 128 128 128
-0.787310 0.092677 0.215386 128 128 128
-0.123125 0.043652 0.022268 128 128 128
-0.259287 0.119672 0.712658 128 128 128
-0.278585 0.167196 0.283698 128 128 128
-0.431794 0.024678 -0.044311 128 128 128
0.005674 -0.068203 -0.064484 128 128 128
-0.300708 0.100421 -0.047893 128 128 128
1.011868 0.092412 0.283250 128 128 128
-0.107371 -0.002606 0.640475 128 128 128
-0.238737 0.021507 0.667502 128 128 128
-0.108269 -0.060644 0.578514 128 128 128
0.305580 0.063260 0.091910 128 128 128
0.330861 0.045906 0.335423 128 128 128
-0.161675 0.055206 -0.347775 128 128 128
0.057486 0.210412 0.823706 128 128 128
0.262486 0.065407 0.430682 128 128 128
0.543670 -0.024345 0.088734 128 128 128
0.536590 0.039298 0.191840 128 128 128
-0.373547 0.107842 0.331666 128 128 128
-0.664287 0.086390 0.368147 128 128 128
-0.257757 0.061784 0.289723 128 128 128
-0.085214 -0.067725 0.309978 128 128 128
0.802206 0.102368 0.238519 128 128 128
-0.037053 0.337721 -0.067973 128 128 128
0.704446 0.023253 -0.042617 128 128 128
-0.016813 -0.023082 -0.083830 128 128 128
0.193915 0.190120 0.019171 128 128 128
-0.008231 -0.075371 0.488392 128 128 128
0.095335 0.242469 -0.103109 128 128 128
0.125305 -0.059115 0.441722 128 128 128
0.052498 0.321001 0.053937 128 128 128
-0.017975 0.398091 0.589967 128 128 128
0.628967 0.093091 0.134961 128 128 128
1.133659 0.094670 0.514124 128 128 128
-0.830728 0.052182 0.439958 128 128 128
0.439639 0.061993 0.491195 128 128 128
0.064442 0.271572 0.506771 128 128 128
-0.321243 0.091097 0.089261 128 128 128
-0.254513 0.036075 0.084890 128 128 128
0.140807 0.247292 0.198815 128 128 128
-1.132363 0.095109 0.442668 128 128 128
-0.168245 0.231105 0.453579 128 128 128
0.094304 0.007720 0.106038 128 128 128
-0.048795 0.009884 0.819138 128 128 128
0.360793 0.067322 0.410802 128 128 128
-0.995428 0.078512 0.519938 128 128 128
0.425081 0.018464 0.427241 128 128 128
-0.080159 0.210674 0.482732 128 128 128
0.639263 0.084636 0.105291 128 128 128
-0.995460 0.071796 0.546303 128 128 128
-0.253177 0.113654 0.093471 128 128 128
-0.242462 0.029112 0.587508 128 128 128
0.018411 0.307060 0.741656 128 128 128
-0.041348 0.242579 0.755230 128 128 128
0.850671 0.103165 0.348944 128 128 128
-0.049661 -0.043110 -0.254351 128 128 128
-0.325334 0.134279 -0.072003 128 128 128
-0.119955 -0.090170 0.735924 128 128 128
-0.415803 0.117936 0.286317 128 128 128
0.566649 0.086236 0.034398 128 128 128
-0.132277 0.252773 0.329861 128 128 128
-0.113200 0.284047 0.120127 128 128 128
0.096659 -0.162447 0.152024 128 128 128
-0.099660 0.010997 0.466058 128 128 128
-0.450841 0.061821 0.423654 128 128 128
0.208963 0.086107 0.377409 128 128 128
0.206009 0.187748 0.037739 128 128 128
-0.399579 0.086136 0.461605 128 128 128
0.370016 0.068682 0.125830 128 128 128
-0.183086 0.070137 0.827299 128 128 128
-0.792309 0.061610 0.330526 128 128 128
-0.041361 -0.025906 0.682547 128 128 128
0.318005 0.066074 0.372903 128 128 128
-0.158714 0.140606 -0.313024 128 128 128
-0.047091 0.286509 -0.018258 128 128 128
0.330380 0.228138 0.796603 128 128 128
0.122366 -0.056510 0.689112 128 128 128
0.045686 -0.009957 0.805462 128 128 128
-0.291387 0.098337 -0.147470 128 128 128
-0.055796 -0.095786 0.797499 128 128 128
0.198224 0.015557 0.646201 128 128 128
0.467467 0.031100 0.081306 128 128 128
0.109435 -0.073171 0.809790 128 128 128
0.174470 0.088930 0.171788 128 128 128
-0.192639 0.045964 0.050829 128 128 128
-0.608999 0.053114 0.132767 128 128 128
-0.485363 0.110267 0.717030 128 128 128
0.969277 0.098838 0.310309 128 128 128
0.049375 0.117914 0.844970 128 128 128
-0.183682 0.055450 0.110019 128 128 128
-0.203212 0.140542 0.655797 128 128 128
0.045624 0.286759 0.561640 128 128 128
0.042644 -0.021780 0.828876 128 128 128
-0.172440 0.098094 0.727456 128 128 128
-0.092455 0.055219 0.609618 128 128 128
0.176810 -0.007715 0.707135 128 128 128
-0.457331 0.085217 0.807124 128 128 128
0.001535 0.643269 0.769301 128 128 128
-0.016812 -0.053737 -0.194695 128 128 128
-0.082945 -0.013746 -0.329802 128 128 128
-0.214908 0.014818 -0.006468 128 128 128
-0.041556 0.059994 0.699831 128 128 128
-1.130009 0.067095 0.270473 128 128 128
0.095543 0.078841 0.808874 128 128 128
-0.030894 0.263906 -0.050929 128 128 128
0.039708 -0.111135 -0.504885 128 128 128
-0.014364 0.625038 0.740387 128 128 128
-0.105668 -0.005513 0.022224 128 128 128
0.033262 0.024318 0.589081 128 128 128
-0.409681 0.036459 0.298801 128 128 128
0.134613 0.023423 0.832158 128 128 128
-1.020765 0.074458 0.238984 128 128 128
0.164245 0.232201 0.274675 128 128 128
0.268102 0.057726 0.241054 128 128 128
0.036031 0.004602 0.216846 128 128 128
-0.074088 0.301571 0.513968 128 128 128
0.443594 0.024637 -0.096218 128 128 128
0.018867 0.244717 -0.180924 128 128 128
-0.093744 0.127324 0.537325 128 128 128
-0.044435 0.025870 -0.486143 128 128 128
0.621382 0.087100 0.053267 128 128 128
0.682975 0.090694 0.354831 128 128 128
0.753188 0.071642 0.453091 128 128 128
0.492938 0.108019 0.336803 128 128 128
0.152628 0.213347 0.723486 128 128 128
0.145009 0.019845 0.805855 128 128 128
0.606420 0.017837 0.052556 128 128 128
-0.688134 0.063307 0.173766 128 128 128
0.100728 0.236787 0.150558 128 128 128
0.355324 0.047028 0.051478 128 128 128
0.036081 -0.029196 -0.233807 128 128 128
-0.408876 0.015720 0.182330 128 128 128
-0.082387 0.022517 -0.212825 128 128 128
-1.026519 0.088266 0.326708 128 128 128
0.288268 0.070094 0.197850 128 128 128
0.315099 0.189891 0.843842 128 128 128
-0.445983 0.122901 0.116618 128 128 128
-0.109994 0.006894 -0.341105 128 128 128
1.067034 0.088679 0.333220 128 128 128
-0.043697 -0.005356 -0.269726 128 128 128
0.117189 0.189553 -0.397324 128 128 128
-0.927377 0.085654 0.205240 128 128 128
0.412152 -0.000625 0.268680 128 128 128
-0.726022 0.068560 0.248297 128 128 128
-0.029161 -0.089909 0.898368 128 128 128
0.020978 0.286226 0.617976 128 128 128
0.163465 -0.004576 0.043229 128 128 128
-0.037897 0.144031 0.849980 128 128 128
0.004552 0.315774 0.632108 128 128 128
-0.194931 0.134906 0.320656 128 128 128
-0.044851 0.015724 -0.490005 128 128 128
-0.305942 0.130563 -0.003396 128 128 128
0.512166 0.071327 0.291881 128 128 128
0.375648 0.103368 0.220571 128 128 128
0.669361 0.050507 0.367353 128 128 128
0.153856 -0.047559 0.301687 128 128 128
-0.062533 0.258885 -0.418960 128 128 128
-0.843360 0.081587 0.150179 128 128 128
0.321205 0.053841 0.323151 128 128 128
0.011476 0.392076 0.482711 128 128 128
0.164160 0.046800 0.324542 128 128 128
0.038107 0.123477 -0.547506 128 128 128
0.683088 0.088638 0.044234 128 128 128
0.084634 0.242758 0.431224 128 128 128
0.016454 0.029309 0.726425 128 128 128
0.001520 0.312473 0.666312 128 128 128
0.533633 0.066843 0.451923 128 128 128
0.858905 0.078714 0.235592 128 128 128
-0.516739 0.091440 0.106375 128 128 128
-0.171864 0.086118 -0.403114 128 128 128
0.407781 0.059620 0.136965 128 128 128
0.640470 0.090320 0.068618 128 128 128
-0.097505 -0.010658 -0.185818 128 128 128
0.098395 0.251243 0.394189 128 128 128
-1.060563 0.068349 0.450818 128 128 128
0.334145 0.025600 0.248321 128 128 128
0.169643 -0.019969 0.638645 128 128 128
-0.105191 -0.067059 0.761199 128 128 128
-0.395681 0.087484 0.073006 128 128 128
0.003330 0.016911 -0.150893 128 128 128
0.337029 0.107779 0.290559 128 128 128
0.052394 0.203887 0.684137 128 128 128
-0.166090 0.051677 0.259158 128 128 128
-0.323864 0.091329 0.324873 128 128 128
0.108784 -0.064551 0.401734 128 128 128
0.626467 0.082701 0.400815 128 128 128
-0.566326 0.059985 0.320198 128 128 128
-0.763220 0.050389 0.535914 128 128 128
0.946896 0.080452 0.360554 128 128 128
0.368151 0.105129 0.358159 128 128 128
-0.105615 0.002527 -0.448173 128 128 128
-0.016406 0.331787 -0.205133 128 128 128
-0.501690 0.111349 0.137982 128 128 128
0.239697 0.090669 -0.011730 128 128 128
-0.404463 0.127330 0.238925 128 128 128
-0.514627 -0.019566 -0.089733 128 128 128
1.202323 0.079938 0.589784 128 128 128
0.196239 0.123943 0.370619 128 128 128
0.602247 0.064304 0.138104 128 128 128
-0.051167 0.187161 0.926424 128 128 128
0.858073 0.073536 0.326960 128 128 128
0.106046 0.248329 -0.295819 128 128 128
-0.005477 -0.051763 -0.168081 128 128 128
-0.413970 0.051496 0.139993 128 128 128
0.004073 0.324969 0.539921 128 128 128
-0.105486 -0.027771 0.427596 128 128 128
-0.906668 0.069899 0.506020 128 128 128
0.046000 0.076239 0.877336 128 128 128
0.024399 0.112730 0.824854 128 128 128
1.047148 0.091275 0.333038 128 128 128
0.099195 0.006374 -0.032959 128 128 128
-0.155946 0.051330 0.273277 128 128 128
0.183171 0.135035 0.196597 128 128 128
-0.248303 0.057291 -0.063052 128 128 128
0.852908 0.082191 0.358344 128 128 128
-0.049351 -0.108710 -0.385816 128 128 128
0.040108 0.196965 0.875985 128 128 128
0.155556 0.107542 0.869027 128 128 128
0.549260 0.064860 -0.102627 128 128 128
-0.021308 0.270589 0.576429 128 128 128
-0.309645 0.010851 -0.139572 128 128 128
0.281089 0.102062 0.312648 128 128 128
-0.109303 0.056506 0.619558 128 128 128
-0.001741 0.280670 -0.095808 128 128 128
0.074021 -0.041229 0.101060 128 128 128
-0.030366 0.626325 0.729159 128 128 128
0.045094 -0.035851 -0.189961 128 128 128
-0.354341 0.005351 -0.136028 128 128 128
-0.039148 0.239474 -0.468512 128 128 128
-0.159563 0.014891 0.889698 128 128 128
-0.004349 0.296233 0.357100 128 128 128
0.624527 0.014847 0.097939 128 128 128
-0.091769 0.222670 0.748941 128 128 128
-0.103585 0.017727 0.573433 128 128 128
0.172714 0.071708 -0.385541 128 128 128
-0.823894 0.095647 0.285771 128 128 128
0.002999 0.022218 0.611827 128 128 128
-0.639025 0.018946 0.284721 128 128 128
0.047428 0.228816 0.476933 128 128 128
0.095057 0.025701 -0.231446 128 128 128
0.065409 -0.055557 0.175492 128 128 128
0.063804 0.293868 0.408644 128 128 128
0.613961 0.049352 0.187143 128 128 128
0.957014 0.084545 0.262661 128 128 128
0.071290 0.059372 -0.020591 128 128 128
0.392522 0.053223 -0.062611 128 128 128
0.132551 0.039084 0.209811 128 128 128
0.548750 0.031121 0.300496 128 128 128
-0.289329 0.083206 -0.126139 128 128 128
0.009407 0.225021 0.583933 128 128 128
0.000370 0.264863 -0.119283 128 128 128
0.057978 0.274613 -0.326509 128 128 128
-0.000926 -0.133174 0.144126 128 128 128
0.595228 0.072036 0.070083 128 128 128
-0.134633 -0.075123 0.528250 128 128 128
-0.315043 0.027780 0.062196 128 128 128
0.642635 0.069235 0.255606 128 128 128
-0.112439 0.141323 -0.476832 128 128 128
0.429757 -0.030518 0.038957 128 128 128
-0.165337 0.025938 0.146062 128 128 128
-0.391710 -0.064229 -0.117983 128 128 128
-0.687248 0.029758 0.507019 128 128 128
-0.074769 0.075169 0.519977 128 128 128
-0.036665 0.035194 -0.065532 128 128 128
0.606767 0.081379 0.227823 128 128 128
0.237265 0.064097 0.129815 128 128 128
-0.147159 -0.095742 0.188484 128 128 128
-0.278051 0.228236 0.798424 128 128 128
0.057403 -0.060243 0.039249 128 128 128
-0.156784 0.044372 -0.379968 128 128 128
-0.718597 0.074599 0.150373 128 128 128
-0.153478 0.057914 0.280552 128 128 128
-0.050867 -0.032131 0.168347 128 128 128
0.050193 -0.041504 -0.208077 128 128 128
0.431116 0.083499 0.437196 128 128 128
0.008870 -0.004445 0.887174 128 128 128
-0.162478 0.076174 0.632641 128 128 128
0.358878 0.216683 0.807103 128 128 128
-0.358420 0.067022 0.044633 128 128 128
0.567487 -0.028862 0.128474 128 128 128
0.438097 0.033197 0.168390 128 128 128
-0.029054 0.325152 -0.309315 128 128 128
0.051184 0.004902 0.161700 128 128 128
0.023951 0.031697 -0.494489 128 128 128
-0.085448 -0.008724 -0.032042 128 128 128
-0.432673 0.084530 0.719980 128 128 128
0.047929 0.003520 0.002251 128 128 128
-0.128085 0.198939 -0.323408 128 128 128
-0.029585 0.312060 -0.199820 128 128 128
-0.340344 0.118229 0.165030 128 128 128
0.893135 0.060353 0.459936 128 128 128
0.642127 0.046889 -0.069034 128 128 128
0.591855 -0.020627 0.004395 128 128 128
0.002500 0.020020 0.151143 128 128 128
-0.042984 0.225878 0.886897 128 128 128
-0.557991 0.112280 0.247533 128 128 128
0.012626 -0.239036 -0.385930 128 128 128
-0.050453 -0.140000 0.892801 128 128 128
-0.138336 0.006634 0.058565 128 128 128
-0.214461 0.045758 0.338401 128 128 128
0.030089 0.201085 0.636771 128 128 128
-0.765144 0.066972 0.266404 128 128 128
-0.403327 0.067525 0.044027 128 128 128
0.402554 0.087578 0.052820 128 128 128
-0.073079 0.070550 -0.403791 128 128 128
0.098869 -0.014846 -0.086466 128 128 128
0.068592 0.291002 0.029792 128 128 128
-0.386242 -0.032917 0.105325 128 128 128
-0.185805 0.082403 0.302811 128 128 128
-0.277826 0.012128 0.020215 128 128 128
-0.043221 0.250573 0.325697 128 128 128
0.045229 -0.063030 -0.025800 128 128 128
0.494633 0.095322 0.390234 128 128 128
0.221622 -0.026973 0.333718 128 128 128
0.032343 0.138668 0.881560 128 128 128
0.052369 0.030790 0.870253 128 128 128
-0.097718 -0.144641 0.946185 128 128 128
0.883952 0.087674 0.449509 128 128 128
-0.338463 0.048389 -0.076806 128 128 128
0.454059 0.239824 0.879376 128 128 128
-0.151340 -0.040745 0.852550 128 128 128
0.951294 0.073418 0.519463 128 128 128
0.063988 0.234205 0.821981 128 128 128
0.736076 0.072105 0.343844 128 128 128
0.407547 0.081158 0.068132 128 128 128
0.080864 0.182405 0.707405 128 128 128
-0.002220 0.287356 0.070250 128 128 128
0.379026 0.073703 0.509568 128 128 128
0.120792 0.234149 -0.299338 128 128 128
-0.685489 0.091850 0.319960 128 128 128
0.086722 0.257005 -0.269414 128 128 128
0.053614 0.283939 0.576805 128 128 128
-0.009192 0.544504 0.736358 128 128 128
-0.037249 0.019787 0.022215 128 128 128
-0.137131 0.021288 0.562305 128 128 128
0.283680 0.111261 -0.154999 128 128 128
-0.132408 0.039253 -0.347426 128 128 128
-0.008029 -0.060030 0.696770 128 128 128
-0.003769 0.283540 0.482212 128 128 128
-0.011505 0.643189 0.808643 128 128 128
0.119092 0.187398 -0.418922 128 128 128
-0.770662 0.091388 0.233490 128 128 128
-0.235173 0.031308 0.071480 128 128 128
-0.058027 -0.060143 0.301283 128 128 128
0.148234 0.138277 0.770374 128 128 128
-0.067891 0.255283 0.471573 128 128 128
-0.521315 0.082495 0.554866 128 128 128
0.427046 0.059954 0.513271 128 128 128
-0.515561 0.106404 0.118578 128 128 128
-0.006246 0.190125 0.729597 128 128 128
-0.389708 0.065178 0.451118 128 128 128
-0.522885 0.068123 0.206611 128 128 128
0.050249 0.031847 -0.520702 128 128 128
-0.474133 0.084338 0.337283 128 128 128
0.027905 0.343033 0.062029 128 128 128
0.175388 0.070647 -0.428971 128 128 128
0.095425 0.028182 -0.084407 128 128 128
-0.102023 0.124155 0.617330 128 128 128
0.106656 -0.120112 0.175019 128 128 128
0.034137 -0.041054 0.627901 128 128 128
0.070108 0.253497 -0.157447 128 128 128
-0.052583 0.284153 0.015629 128 128 128
-0.381031 0.090894 0.693131 128 128 128
-0.008168 0.304876 0.552579 128 128 128
0.154879 -0.039051 0.817913 128 128 128
0.443865 -0.055439 0.086420 128 128 128
-0.012436 0.469701 0.570397 128 128 128
0.486042 0.068229 0.207455 128 128 128
-0.025592 0.317812 0.184004 128 128 128
-0.421510 0.071753 0.007620 128 128 128
0.018183 0.306629 0.678119 128 128 128
-0.014099 0.445576 0.533840 128 128 128
-0.031443 0.714353 0.819566 128 128 128
0.010840 0.475210 0.734239 128 128 128
0.175871 0.104248 0.071366 128 128 128
-0.052764 0.146016 -0.374332 128 128 128
-0.386646 0.107327 0.788938 128 128 128
-0.918821 0.057635 0.361655 128 128 128
-0.406610 -0.061851 0.131011 128 128 128
0.064863 0.203768 0.777065 128 128 128
-0.401750 0.034980 0.203175 128 128 128
0.263436 0.034864 0.277203 128 128 128
0.139371 0.200201 -0.356445 128 128 128
0.977902 0.103722 0.317494 128 128 128
1.018870 0.082358 0.470128 128 128 128
-0.137307 0.264492 0.304384 128 128 128
0.025706 0.124288 0.596031 128 128 128
-0.011457 0.401916 0.598099 128 128 128
0.002071 0.294608 0.855933 128 128 128
-0.043804 -0.067258 -0.308885 128 128 128
-0.616070 0.071062 0.394182 128 128 128
0.709788 0.059380 -0.045358 128 128 128
-0.013298 0.503318 0.622511 128 128 128
-0.032208 -0.057685 0.441641 128 128 128
0.018903 0.137106 0.831995 128 128 128
0.035169 0.232853 0.907078 128 128 128
0.828629 0.080882 0.222310 128 128 128
-0.014149 0.123809 -0.390552 128 128 128
-0.498898 0.098727 0.352795 128 128 128
-0.108598 0.033029 -0.201807 128 128 128
0.309980 0.104385 -0.083452 128 128 128
-0.469149 0.144649 0.747788 128 128 128
-0.900479 0.093528 0.245773 128 128 128
0.218989 0.085915 -0.193160 128 128 128
0.516625 -0.003596 0.203813 128 128 128
0.814646 0.088348 0.446011 128 128 128
0.419941 0.040735 -0.044797 128 128 128
-0.998528 0.051075 0.247705 128 128 128
0.458350 0.002455 -0.035960 128 128 128
0.027100 0.329340 0.319937 128 128 128
-0.396559 0.035230 0.334895 128 128 128
-0.137607 -0.080125 0.462111 128 128 128
0.118097 -0.026028 -0.128544 128 128 128
-0.145370 -0.073589 0.523150 128 128 128
-0.040006 0.292786 0.262898 128 128 128
-0.036790 -0.071085 0.415587 128 128 128
-0.272785 0.054754 -0.036190 128 128 128
-0.029914 -0.083019 -0.422848 128 128 128
-0.008483 -0.112638 -0.420565 128 128 128
-0.424855 0.053305 0.490868 128 128 128
0.581644 -0.005108 0.218221 128 128 128
-1.076724 0.063495 0.375664 128 128 128
-0.057598 0.237589 0.759013 128 128 128
0.077191 -0.093760 0.236204 128 128 128
0.114661 0.214375 0.742304 128 128 128
-0.583241 0.093090 0.132339 128 128 128
-0.738090 0.103485 0.362673 128 128 128
0.198374 0.070039 0.486890 128 128 128
1.158760 0.105775 0.340798 128 128 128
0.187864 0.098989 0.394653 128 128 128
-0.467332 0.034702 -0.035942 128 128 128
0.094236 -0.069682 0.181048 128 128 128
-0.005529 0.390009 0.819859 128 128 128
-0.316158 0.061138 0.220610 128 128 128
-0.220872 0.202000 0.106365 128 128 128
0.089732 0.234155 0.635396 128 128 128
0.063098 0.265416 -0.337691 128 128 128
0.346898 0.100677 0.315651 128 128 128
-0.182291 0.053145 0.255842 128 128 128
0.149278 0.048636 -0.018477 128 128 128
0.058797 0.078148 0.866358 128 128 128
0.009821 -0.021924 0.404221 128 128 128
-0.299688 -0.020072 0.096872 128 128 128
-0.502748 0.109941 0.230799 128 128 128
0.113916 0.019509 0.215329 128 128 128
0.005495 0.240174 0.327184 128 128 128
-0.110237 -0.021300 0.021067 128 128 128
-0.006543 -0.037740 -0.063807 128 128 128
-0.407748 0.064721 0.149353 128 128 128
-0.085745 -0.092977 0.073399 128 128 128
0.019790 0.247760 0.862855 128 128 128
0.421573 0.074979 0.110153 128 128 128
0.410834 0.101115 0.350607 128 128 128
0.221181 0.085026 0.123151 128 128 128
0.058591 -0.007085 0.597518 128 128 128
0.172910 0.212703 0.013686 128 128 128
-0.027524 0.203249 0.465513 128 128 128
-0.120398 -0.000817 -0.062763 128 128 128
0.081689 0.288534 -0.261843 128 128 128
-0.332809 0.058017 0.719719 128 128 128
-0.015935 0.229878 -0.389876 128 128 128
0.157539 0.064055 -0.154796 128 128 128
-0.032417 0.290978 0.550346 128 128 128
-0.155999 -0.039600 0.531083 128 128 128
-0.029703 -0.067283 0.499749 128 128 128
-0.410185 0.080223 0.703025 128 128 128
-1.068902 0.100599 0.492516 128 128 128
-0.217661 0.046441 0.305767 128 128 128
0.767881 0.073578 0.303763 128 128 128
0.056684 0.301241 -0.209622 128 128 128
-0.368421 0.058794 0.337506 128 128 128
-0.050869 0.267837 -0.051649 128 128 128
-0.312139 0.041321 0.461432 128 128 128
-0.010903 0.529826 0.833061 128 128 128
0.117986 0.212603 -0.213722 128 128 128
0.149262 -0.084592 0.641566 128 128 128
-0.145867 0.115253 -0.466644 128 128 128
-0.003576 0.372921 0.644747 128 128 128
0.045556 -0.106825 -0.467751 128 128 128
0.047086 0.030040 -0.461687 128 128 128
-0.872390 0.062610 0.461312 128 128 128
-0.081594 0.293296 0.091969 128 128 128
-0.208495 0.031530 0.606732 128 128 128
-0.479673 0.114341 0.183079 128 128 128
0.203342 0.086536 -0.290006 128 128 128
0.543699 0.074132 0.278506 128 128 128
-0.146758 0.174560 -0.296208 128 128 128
-0.006069 -0.289276 -0.332309 128 128 128
-0.028366 0.334310 0.270040 128 128 128
-0.045188 0.273860 -0.416069 128 128 128
0.138291 0.035353 0.140229 128 128 128
0.520699 0.104909 0.063595 128 128 128
0.780286 0.078794 0.385292 128 128 128
0.142474 -0.030272 -0.069853 128 128 128
-0.008280 0.548749 0.824115 128 128 128
0.489400 0.012370 0.281470 128 128 128
0.113248 0.231057 0.644285 128 128 128
0.118536 0.234744 -0.024167 128 128 128
-0.214696 0.088785 0.687176 128 128 128
0.152798 0.064796 -0.340740 128 128 128
-0.238678 0.218833 0.769263 128 128 128
0.091537 0.266165 -0.328624 128 128 128
-0.390151 0.097182 -0.145170 128 128 128
-0.008753 0.122689 0.666451 128 128 128
-0.856384 0.057041 0.229505 128 128 128
0.036705 -0.035448 -0.072087 128 128 128
0.047543 0.282007 -0.260905 128 128 128
0.193973 0.148012 0.048749 128 128 128
-0.451141 0.107304 0.166940 128 128 128
0.646115 0.090572 0.387487 128 128 128
0.123398 0.267810 0.129957 128 128 128
-0.904704 0.075135 0.439982 128 128 128
0.047464 0.305623 0.164813 128 128 128
0.131901 0.254828 0.098418 128 128 128
-0.446585 0.069234 0.479815 128 128 128
-0.107671 0.293436 0.098102 128 128 128
-0.007207 -0.041228 0.049006 128 128 128
-0.040024 0.010427 -0.096812 128 128 128
-0.050037 0.193782 0.730619 128 128 128
0.597032 -0.015388 0.058493 128 128 128
0.054775 0.184674 0.894324 128 128 128
-0.310077 0.027625 0.097519 128 128 128
0.260102 0.187023 0.807702 128 128 128
-0.137652 0.234400 0.557446 128 128 128
0.210734 0.102782 0.436216 128 128 128
0.051371 -0.019890 0.345375 128 128 128
0.337798 0.086977 -0.092727 128 128 128
-0.004077 -0.015718 0.147729 128 128 128
-0.120903 0.203380 0.854787 128 128 128
-0.049470 -0.036540 0.660971 128 128 128
0.503180 0.009150 0.018323 128 128 128
-0.001530 0.306439 0.114414 128 128 128
-0.467962 0.120115 0.807522 128 128 128
0.105551 0.207403 0.756392 128 128 128
0.088549 0.063567 -0.055659 128 128 128
-0.101722 0.243337 -0.193068 128 128 128
0.274622 0.041135 -0.067926 128 128 128
0.007125 0.352978 0.095127 128 128 128
-0.406843 0.111521 0.349311 128 128 128
-0.054997 0.238527 -0.266420 128 128 128
-0.421133 -0.002288 -0.122252 128 128 128
0.254143 0.119781 -0.313814 128 128 128
-0.086832 0.075863 -0.422157 128 128 128
-0.024128 0.733036 0.828142 128 128 128
0.665396 0.087600 0.073856 128 128 128
0.414669 0.085374 0.465601 128 128 128
-0.024171 0.442336 0.678423 128 128 128
0.957353 0.073820 0.493086 128 128 128
-0.022239 0.537849 0.682079 128 128 128
0.083365 0.246780 0.222629 128 128 128
0.200551 0.036265 0.091245 128 128 128
0.075509 0.276306 -0.329907 128 128 128
-0.545003 0.091527 0.105169 128 128 128
-0.182020 0.029131 0.396055 128 128 128
0.167716 0.178931 0.367238 128 128 128
0.727441 0.034874 0.149401 128 128 128
0.644759 0.065325 0.331675 128 128 128
-0.051456 0.155394 0.908159 128 128 128
-0.822827 0.057198 0.137264 128 128 128
0.110850 0.262657 0.339782 128 128 128
0.114177 0.144737 0.851122 128 128 128
-0.038311 0.077853 -0.559129 128 128 128
0.257932 0.039529 0.295998 128 128 128
-0.186188 0.050637 0.454796 128 128 128
-0.459328 0.096413 0.112167 128 128 128
0.358801 0.109591 0.255555 128 128 128
-0.056571 0.296443 0.220085 128 128 128
0.149201 0.095223 0.816719 128 128 128
-0.600306 0.070741 0.409981 128 128 128
-0.010892 0.222337 0.410100 128 128 128
0.691376 0.040814 0.080110 128 128 128
-0.006070 0.349790 -0.503296 128 128 128
0.047135 -0.067926 0.450039 128 128 128
-0.082962 -0.021823 -0.195016 128 128 128
-0.974300 0.067522 0.362680 128 128 128
-0.173088 -0.000633 0.689131 128 128 128
-0.690783 0.053652 0.498909 128 128 128
0.650733 0.080085 0.078017 128 128 128
-0.035026 0.310461 0.081659 128 128 128
0.035326 0.046029 0.704740 128 128 128
0.174110 0.046912 0.237154 128 128 128
0.485641 0.057402 -0.102472 128 128 128
-0.357067 0.044193 0.338785 128 128 128
0.012923 0.126109 0.645977 128 128 128
-0.132886 -0.120710 0.815891 128 128 128
0.290917 -0.006347 0.141390 128 128 128
-0.108152 -0.106548 0.555494 128 128 128
0.726264 0.019325 0.213435 128 128 128
-0.212570 0.149858 0.089166 128 128 128
-0.211450 0.043848 0.313170 128 128 128
-0.029291 -0.266765 -0.350546 128 128 128
0.997487 0.110548 0.354043 128 128 128
-0.627203 0.065224 0.188651 128 128 128
0.083142 0.066203 0.864726 128 128 128
0.015959 -0.234205 -0.342474 128 128 128
-0.023207 -0.003492 -0.227528 128 128 128
0.431778 0.088362 0.471851 128 128 128
0.423887 0.077981 0.058424 128 128 128
-0.202073 0.166360 0.344522 128 128 128
0.499474 0.045671 0.265979 128 128 128
0.506155 0.090016 0.350996 128 128 128
-0.012828 -0.036218 0.254242 128 128 128
-0.263019 0.044430 0.146241 128 128 128
0.101857 0.132530 -0.440110 128 128 128
-0.067766 0.298918 0.321404 128 128 128
-0.125920 0.282632 0.121460 128 128 128
0.617476 0.006764 0.076029 128 128 128
-0.720520 0.070121 0.463455 128 128 128
-0.298559 0.158462 0.000370 128 128 128
0.863084 0.082224 0.249649 128 128 128
0.389146 0.062602 0.515541 128 128 128
0.206896 0.079535 0.513298 128 128 128
-0.509941 0.113940 0.102137 128 128 128
0.096906 0.150906 -0.452055 128 128 128
0.501029 0.045546 0.293235 128 128 128
0.132111 -0.026913 0.855806 128 128 128
0.373736 0.090614 0.112582 128 128 128
-0.203526 0.189804 0.540340 128 128 128
-0.223693 0.143153 0.018247 128 128 128
-0.094314 0.005683 0.005357 128 128 128
-0.385434 0.102153 0.371981 128 128 128
-0.215223 0.080444 0.172048 128 128 128
-0.340081 0.170382 0.741367 128 128 128
-0.486598 0.096466 0.378483 128 128 128
0.950792 0.079838 0.459039 128 128 128
-0.118874 0.213027 -0.141836 128 128 128
0.433244 0.096095 0.150259 128 128 128
0.040782 -0.009098 -0.386781 128 128 128
-0.155937 0.025616 0.306360 128 128 128
0.032921 0.294728 0.684272 128 128 128
0.324066 0.083606 0.274436 128 128 128
0.137477 0.023201 0.424507 128 128 128
-0.921587 0.076781 0.500873 128 128 128
0.147309 0.249457 0.361386 128 128 128
-0.105536 0.029057 0.075432 128 128 128
-1.093922 0.063619 0.296623 128 128 128
1.193630 0.088941 0.545091 128 128 128
0.509267 -0.021398 0.114248 128 128 128
-0.340085 0.056918 -0.058584 128 128 128
-1.063766 0.064647 0.401017 128 128 128
-0.510266 0.070095 0.371751 128 128 128
0.315435 0.063642 0.334431 128 128 128
-0.473377 0.099798 0.358835 128 128 128
-0.060672 -0.043328 0.179590 128 128 128
-0.016122 0.708183 0.800503 128 128 128
0.811555 0.095126 0.411732 128 128 128
-0.741924 0.079003 0.371865 128 128 128
-0.362915 0.126714 0.287664 128 128 128
0.668071 0.088292 0.040576 128 128 128
0.193998 0.103793 0.519568 128 128 128
0.178496 0.101695 -0.181517 128 128 128
0.112411 0.203383 0.753993 128 128 128
0.177317 0.154475 0.674120 128 128 128
-0.014810 0.035708 0.880941 128 128 128
0.205072 0.172599 0.246098 128 128 128
-0.670558 0.068892 0.122347 128 128 128
0.084910 0.020274 0.014914 128 128 128
-0.777242 0.085593 0.323717 128 128 128
-0.090643 0.225908 0.768506 128 128 128
0.117120 0.112248 -0.116210 128 128 128
0.398872 0.087506 -0.040851 128 128 128
0.161527 0.194509 -0.043804 128 128 128
-0.569980 0.047331 0.301806 128 128 128
0.877157 0.079220 0.259553 128 128 128
-0.028690 0.722881 0.788267 128 128 128
0.762019 0.070896 0.444509 128 128 128
-0.199742 0.170347 0.750269 128 128 128
-0.477766 0.086107 0.501440 128 128 128
-0.000926 -0.016470 0.092711 128 128 128
0.738195 0.073885 0.398442 128 128 128
-0.050552 0.271936 -0.069091 128 128 128
0.083666 0.024108 0.608379 128 128 128
0.179377 0.100008 0.802902 128 128 128
-0.819092 0.090508 0.208606 128 128 128
-0.397876 0.044463 0.073893 128 128 128
-0.047216 0.019756 -0.038121 128 128 128
0.059855 0.269737 -0.119582 128 128 128
0.194651 0.042659 0.143353 128 128 128
0.070307 0.257695 0.059500 128 128 128
-0.154144 0.257828 0.316763 128 128 128
0.047077 -0.003031 -0.382936 128 128 128
0.908581 0.103228 0.383687 128 128 128
-0.070150 -0.119509 0.879045 128 128 128
-1.186830 0.092130 0.632974 128 128 128
-0.222951 0.218485 0.230495 128 128 128
0.125091 0.098345 -0.454037 128 128 128
-0.183905 0.181866 0.615706 128 128 128
-0.932222 0.067994 0.457066 128 128 128
0.467246 0.105623 0.362284 128 128 128
0.599360 0.076974 0.010424 128 128 128
0.103412 0.140281 -0.529658 128 128 128
0.038854 -0.028944 -0.163563 128 128 128
0.060028 0.057667 -0.375947 128 128 128
-0.072923 -0.031544 -0.368338 128 128 128
-0.597924 0.044934 0.279664 128 128 128
-0.102274 0.288322 0.433137 128 128 128
0.398583 0.079765 -0.030606 128 128 128
-0.473108 0.032000 -0.033642 128 128 128
0.220362 0.067318 -0.078827 128 128 128
-0.142624 0.080790 -0.276740 128 128 128
-0.200896 0.035162 0.215952 128 128 128
1.068737 0.098359 0.403756 128 128 128
-0.036070 -0.010718 0.762895 128 128 128
-0.914897 0.094497 0.469514 128 128 128
-1.008194 0.065737 0.448267 128 128 128
0.564965 0.060305 0.471789 128 128 128
0.002858 -0.233316 -0.336907 128 128 128
-0.730851 0.054914 0.215281 128 128 128
0.301513 0.039791 0.193285 128 128 128
0.022175 -0.051345 0.752153 128 128 128
0.004429 0.318106 0.659113 128 128 128
-0.012400 -0.268775 -0.316219 128 128 128
-1.076979 0.084775 0.557770 128 128 128
0.085531 0.249799 0.364602 128 128 128
0.819315 0.078844 0.474140 128 128 128
-0.153835 0.220020 0.039208 128 128 128
-0.455262 0.055113 0.133936 128 128 128
0.651921 0.084170 0.038850 128 128 128
-0.159989 -0.067030 0.488261 128 128 128
0.261167 -0.005188 0.026092 128 128 128
0.060772 -0.009860 -0.133765 128 128 128
-1.045750 0.078150 0.427157 128 128 128
-0.322836 0.223968 0.760812 128 128 128
-0.027474 0.097478 0.899756 128 128 128
0.166544 0.230086 0.042763 128 128 128
-0.055647 0.114138 0.859793 128 128 128
-0.140961 0.233396 0.707813 128 128 128
0.279095 0.127348 -0.165477 128 128 128
-0.009574 0.522465 0.674048 128 128 128
-0.110666 0.087797 0.889400 128 128 128
0.211517 -0.016037 0.089849 128 128 128
-0.114939 0.045925 0.881613 128 128 128
0.000820 0.519897 0.728477 128 128 128
0.151398 0.199566 -0.045220 128 128 128
0.117483 0.194238 0.560514 128 128 128
-0.150345 -0.063115 0.829606 128 128 128
-0.072617 0.205791 0.846756 128 128 128
-0.417592 0.082935 0.139501 128 128 128
0.096242 -0.072078 0.349499 128 128 128
0.196686 0.111776 -0.325926 128 128 128
0.185348 0.056659 0.421807 128 128 128
0.699781 0.080003 0.336268 128 128 128
-0.077695 0.302445 0.098055 128 128 128
0.166280 0.237968 0.156777 128 128 128
0.051804 0.083745 -0.445979 128 128 128
0.122807 0.195934 -0.090398 128 128 128
0.214248 0.019604 -0.009818 128 128 128
-0.246859 0.047583 0.037888 128 128 128
-0.066728 0.040176 0.696320 128 128 128
0.007208 -0.022516 -0.106550 128 128 128
-0.528455 0.056574 0.180339 128 128 128
-0.019843 0.617242 0.855069 128 128 128
-0.658681 0.034152 0.287159 128 128 128
0.012212 0.076109 -0.538413 128 128 128
0.121902 0.269493 0.146658 128 128 128
-0.182521 0.202802 0.724074 128 128 128
-0.010745 0.188163 -0.627901 128 128 128
-0.325475 0.009953 -0.049301 128 128 128
0.109155 0.047547 0.125216 128 128 128
-1.031840 0.096747 0.477660 128 128 128
0.514731 0.097782 0.205375 128 128 128
-0.008096 0.295697 -0.035765 128 128 128
-0.294295 0.109717 0.096804 128 128 128
0.237762 0.141783 0.079882 128 128 128
0.168812 0.151983 -0.269338 128 128 128
-0.391370 0.069227 -0.052008 128 128 128
0.033470 0.261527 0.207207 128 128 128
-0.084414 0.014391 0.713973 128 128 128
0.053191 0.198731 0.860471 128 128 128
0.070594 -0.085151 0.570092 128 128 128
0.436557 0.064970 0.453970 128 128 128
0.087918 -0.042992 0.348236 128 128 128
0.027853 -0.116205 0.200756 128 128 128
-0.029207 -0.029443 -0.247273 128 128 128
0.083471 0.207946 0.692178 128 128 128
0.032594 0.274053 0.185346 128 128 128
-0.016781 0.248022 -0.266519 128 128 128
-0.393317 0.002361 0.075161 128 128 128
-0.005771 -0.061077 0.406087 128 128 128
-0.101713 -0.019238 -0.445542 128 128 128
-0.035694 0.281932 0.238987 128 128 128
0.344667 0.068272 0.404398 128 128 128
0.447014 0.044780 0.086827 128 128 128
-0.253335 0.130980 0.195620 128 128 128
0.139033 0.218113 -0.135595 128 128 128
-0.367430 0.068569 0.250885 128 128 128
-0.046193 0.297284 -0.017061 128 128 128
0.135421 0.178919 0.534933 128 128 128
-0.194023 0.061820 0.196243 128 128 128
-0.136982 0.052421 0.738282 128 128 128
-0.458326 0.046009 0.113756 128 128 128
0.159444 0.217563 -0.004326 128 128 128
-0.090958 0.149740 0.539615 128 128 128
-1.136870 0.103165 0.414422 128 128 128
-0.120406 0.151066 -0.428983 128 128 128
-0.163555 0.205044 0.194576 128 128 128
0.055463 0.267448 -0.113021 128 128 128
-0.027143 0.252605 0.842364 128 128 128
-0.575448 0.035733 0.145733 128 128 128
0.001905 0.216370 0.619555 128 128 128
0.166552 0.138565 0.557032 128 128 128
-0.133696 0.036039 0.539419 128 128 128
0.529921 0.063736 0.489358 128 128 128
0.542773 0.062699 0.356055 128 128 128
0.873358 0.083097 0.372010 128 128 128
-0.691810 0.059445 0.483577 128 128 128
-0.248047 0.040316 0.333879 128 128 128
-0.005216 -0.014087 0.367603 128 128 128
0.117172 0.155181 -0.408727 128 128 128
0.162918 0.010857 -0.151278 128 128 128
0.017254 -0.000023 0.573469 128 128 128
0.898789 0.077205 0.301016 128 128 128
-0.392191 0.130372 0.208417 128 128 128
0.504839 0.057696 0.511375 128 128 128
-0.080063 -0.083755 0.450528 128 128 128
-0.070185 -0.014341 0.031151 128 128 128
-0.970173 0.055811 0.294405 128 128 128
0.507180 0.081876 0.463670 128 128 128
-0.317915 0.050480 0.679314 128 128 128
-0.671678 0.094980 0.370587 128 128 128
-0.024113 0.354015 0.094958 128 128 128
-1.152503 0.088965 0.406177 128 128 128
0.527186 0.040863 0.203464 128 128 128
-0.002823 0.246950 0.508087 128 128 128
-0.053340 -0.035962 0.267707 128 128 128
0.023865 -0.068603 0.291170 128 128 128
-0.081111 -0.025562 -0.028948 128 128 128
-0.084888 -0.020291 0.410778 128 128 128
-0.900485 0.071089 0.207281 128 128 128
0.013253 -0.024541 -0.415930 128 128 128
0.214736 0.073037 -0.088617 128 128 128
-0.517987 0.071354 0.353160 128 128 128
-0.726378 0.064989 0.397416 128 128 128
0.710223 0.033929 0.068944 128 128 128
-0.118215 0.194884 0.867007 128 128 128
0.400462 0.077231 0.466274 128 128 128
0.003548 0.295239 -0.245808 128 128 128
0.166842 -0.029150 0.698901 128 128 128
-0.522673 0.064027 0.191469 128 128 128
1.138644 0.076750 0.558275 128 128 128
0.223125 0.071434 0.063666 128 128 128
-0.033996 -0.021841 0.603588 128 128 128
1.088846 0.102399 0.358547 128 128 128
-0.103429 0.206962 0.810013 128 128 128
-0.464825 0.045585 0.093890 128 128 128
-0.030920 0.272884 0.331788 128 128 128
0.665759 -0.002032 0.019517 128 128 128
-0.013255 0.408677 0.633886 128 128 128
0.190559 0.190748 0.750085 128 128 128
0.177887 0.037370 0.269234 128 128 128
0.074414 -0.075357 0.235830 128 128 128
-0.004806 0.706136 0.808019 128 128 128
-0.077686 0.229808 -0.470110 128 128 128
0.004136 -0.246814 -0.326234 128 128 128
0.172034 0.146389 0.752206 128 128 128
-0.009606 -0.005111 0.560808 128 128 128
-0.077326 0.174931 -0.531503 128 128 128
0.164056 0.042673 -0.220461 128 128 128
0.396700 0.105618 0.173194 128 128 128
-0.328900 0.052239 0.491776 128 128 128
0.012029 -0.054457 -0.047573 128 128 128
-0.170023 0.116848 -0.455106 128 128 128
0.311247 0.083470 0.154477 128 128 128
-0.965201 0.079102 0.246551 128 128 128
-0.224251 0.219058 0.776417 128 128 128
-0.274222 0.189352 0.241684 128 128 128
0.303092 0.231523 0.826558 128 128 128
0.282793 0.041001 0.001598 128 128 128
0.257102 0.058938 -0.203642 128 128 128
0.172950 0.196505 0.333911 128 128 128
0.186573 0.121451 -0.311785 128 128 128
0.086378 0.273499 -0.177515 128 128 128
0.497586 0.002412 0.280229 128 128 128
-0.949387 0.085968 0.509721 128 128 128
0.016741 0.250708 0.639527 128 128 128
0.589622 -0.015982 0.240370 128 128 128
-0.756491 0.106319 0.287012 128 128 128
-0.155265 0.174658 -0.307878 128 128 128
0.001700 -0.064392 0.021374 128 128 128
0.052446 -0.091426 0.706311 128 128 128
-0.940312 0.086888 0.414616 128 128 128
-0.429044 0.080925 0.412938 128 128 128
-0.308911 0.028652 0.028862 128 128 128
0.087156 0.236431 -0.036625 128 128 128
0.294023 0.104825 0.321989 128 128 128
-0.752835 0.081083 0.452992 128 128 128
0.101301 -0.063384 0.799837 128 128 128
0.782993 0.104012 0.333585 128 128 128
-0.181437 0.092461 -0.052280 128 128 128
0.154194 0.166911 0.629099 128 128 128
-0.016270 0.288925 0.766063 128 128 128
0.196609 0.039164 0.648960 128 128 128
-0.048667 -0.021489 0.293689 128 128 128
1.063521 0.085997 0.409476 128 128 128
-0.100227 -0.085790 0.520802 128 128 128
0.014713 -0.116975 0.550634 128 128 128
0.201524 0.134577 -0.298027 128 128 128
0.069256 -0.035865 0.117626 128 128 128
-0.433954 0.060247 0.437843 128 128 128
-0.661976 0.066279 0.509676 128 128 128
-0.033358 0.244662 -0.532205 128 128 128
-0.343123 0.125998 -0.061174 128 128 128
-0.038757 0.235364 0.581830 128 128 128
-0.029014 -0.009692 -0.334791 128 128 128
0.163936 0.086467 0.003195 128 128 128
-0.017464 0.184332 0.503655 128 128 128
0.130940 0.213892 -0.224448 128 128 128
0.087491 0.020298 0.076415 128 128 128
0.842374 0.095506 0.307498 128 128 128
0.222826 0.002673 0.473465 128 128 128
-0.040926 -0.033531 0.054504 128 128 128
0.460736 0.018403 0.023615 128 128 128
0.434273 -0.007032 -0.058906 128 128 128
-0.022167 0.270118 0.496559 128 128 128
0.139237 -0.081602 0.461855 128 128 128
0.317221 0.233856 0.801858 128 128 128
-0.022121 0.289192 0.715866 128 128 128
-0.200354 0.034822 -0.028420 128 128 128
-0.314205 0.040252 0.058008 128 128 128
-0.032356 -0.078629 0.183258 128 128 128
-0.125769 -0.057850 0.596329 128 128 128
-0.963754 0.078666 0.572038 128 128 128
0.212527 0.094648 0.469429 128 128 128
-0.929392 0.062343 0.442080 128 128 128
1.094138 0.107048 0.326580 128 128 128
-0.648318 0.051654 0.459590 128 128 128
-0.394161 0.066457 0.241962 128 128 128
-0.502786 0.054420 -0.130219 128 128 128
-0.014289 0.313450 0.556558 128 128 128
0.501186 -0.000795 0.077357 128 128 128
-0.332821 0.047969 0.193676 128 128 128
0.075348 0.267887 0.723421 128 128 128
0.613013 0.015332 0.239332 128 128 128
-0.162088 -0.027420 0.564348 128 128 128
0.839184 0.099957 0.210519 128 128 128
0.146342 -0.035793 0.434863 128 128 128
-0.442768 0.100754 0.128998 128 128 128
0.006381 0.289992 -0.052462 128 128 128
-0.169678 0.002425 0.040459 128 128 128
-0.367865 -0.064225 -0.067726 128 128 128
-0.368312 -0.005357 -0.002667 128 128 128
-0.002753 0.284489 0.487176 128 128 128
0.428167 0.078317 -0.040867 128 128 128
-0.034204 0.140111 -0.522466 128 128 128
-0.010152 0.622459 0.865763 128 128 128
0.226683 -0.107432 0.170412 128 128 128
-1.113497 0.058612 0.411216 128 128 128
0.119425 -0.028528 0.884767 128 128 128
0.015226 -0.131359 -0.383138 128 128 128
0.501993 0.052560 0.138022 128 128 128
-0.022418 0.692777 0.877889 128 128 128
-0.106460 0.011574 -0.277591 128 128 128
0.055379 -0.076983 0.593581 128 128 128
0.130303 -0.068664 0.719661 128 128 128
0.123365 0.252110 0.572401 128 128 128
-0.984780 0.076708 0.518414 128 128 128
-0.547205 0.087738 0.064377 128 128 128
0.302612 0.047224 0.491261 128 128 128
-0.818766 0.057583 0.321780 128 128 128
0.090964 0.115226 -0.472885 128 128 128
-0.026308 0.314349 0.291163 128 128 128
-0.017405 0.641072 0.915911 128 128 128
-0.961306 0.085223 0.379965 128 128 128
0.051802 0.291104 -0.286383 128 128 128
-0.028495 -0.008642 -0.500473 128 128 128
-0.357120 0.121880 0.131558 128 128 128
-0.198401 0.102362 -0.047310 128 128 128
0.692752 0.013831 0.294259 128 128 128
0.035300 -0.031701 0.128098 128 128 128
0.136424 0.256798 0.188062 128 128 128
-0.156015 0.124032 0.716080 128 128 128
-0.135931 -0.062191 0.930556 128 128 128
-0.342619 0.144975 0.161956 128 128 128
0.320135 0.049375 -0.046580 128 128 128
